1.194693903015632230e+01,-1.348416494603774041e+01,1.314712048431783487e+01
1.192097634228619718e+01,-1.378878702050216276e+01,1.394500578151122205e+01
1.189795846039892879e+01,-1.353503015671783061e+01,1.329711577114010801e+01
1.428737459539010857e+01,-1.457981493807526618e+01,1.596443289521108966e+01
1.394578557268001262e+01,-1.429172912507882209e+01,1.455387618514916426e+01
1.381023704112949346e+01,-1.442968672884243375e+01,1.529489980495424994e+01
1.464502879025698689e+01,-1.482261892025537620e+01,1.713464404849833755e+01
1.462384157506580884e+01,-1.483034219504509288e+01,1.717985821883691955e+01
1.463555051309178623e+01,-1.454762342331888370e+01,1.571420682989252171e+01
1.367296102484289477e+01,-1.478091350546125682e+01,1.713376196905271343e+01
1.375803008506477632e+01,-1.482967735694785816e+01,1.736740762912697988e+01
1.351165763226843097e+01,-1.483903142953267462e+01,1.746962968443388320e+01
1.316577734530094546e+01,-1.462349391452118041e+01,1.642906556828037878e+01
1.352848181186138277e+01,-1.491437702642405227e+01,1.785550542992829648e+01
1.249784283329104895e+01,-1.439590842833083784e+01,1.539111227996154163e+01
1.555226616111852778e+01,-1.523429147435513720e+01,1.864705312977328333e+01
1.629876835490917131e+01,-1.587446033555392333e+01,2.111803472881452848e+01
1.485242632885972824e+01,-1.502374611992201281e+01,1.796993845053346206e+01
1.492328051018248658e+01,-1.498871915245313602e+01,1.780140774935621195e+01
1.526441123444184811e+01,-1.496753911948077231e+01,1.760882220323244240e+01
1.647081728409825274e+01,-1.592819166243630491e+01,2.127047029621837027e+01
1.586840831173795863e+01,-1.534428654309758144e+01,1.896207239477631390e+01
1.603319028195399198e+01,-1.602733750641764487e+01,2.171498097249852677e+01
1.484508848467613973e+01,-1.536160077098156584e+01,1.933908187312932725e+01
1.543523080436746220e+01,-1.577291545099173220e+01,2.087403567736777887e+01
1.408786528406959704e+01,-1.499043600100784346e+01,1.804096785005686598e+01
1.480891362866645622e+01,-1.551435546866369464e+01,1.999891186916254782e+01
1.491955931492140586e+01,-1.558722207052184316e+01,2.026829495786772384e+01
1.493013971590053224e+01,-1.549945284151175429e+01,1.990317367695550388e+01
1.667543135717853886e+01,-1.606953012916689971e+01,2.180088687345384102e+01
1.604003130142127276e+01,-1.608961384140796014e+01,2.203190320008163638e+01
2.751187238806409141e+00,-5.415599195490529816e+00,-2.746708454031773883e+00
1.250621592635793888e+01,-1.320498964296314348e+01,1.221365514026390819e+01
1.186097008556380672e+01,-1.255266055328261920e+01,1.076256658074556860e+01
1.255207846090574719e+01,-1.253087315778235045e+01,1.044666594737726228e+01
1.291268102728467682e+01,-1.290603367594239259e+01,1.128519891237981376e+01
1.289886564576959138e+01,-1.272451578641132031e+01,1.081921728387976600e+01
1.263174396342624917e+01,-1.292007594205473708e+01,1.142701105117421534e+01
1.140351278522701861e+01,-1.282716234555329216e+01,1.164680629819319257e+01
1.112785533313008912e+01,-1.336288511485540553e+01,1.314075088552199944e+01
1.153053360505249003e+01,-1.324632660711668564e+01,1.268710940020897127e+01
1.146491310802718644e+01,-1.287168927314997546e+01,1.173933796334251589e+01
1.100989991361782572e+01,-1.307645384872316185e+01,1.244155611474728573e+01
1.058912728303547901e+01,-1.298160216340719764e+01,1.235322996607203194e+01
1.050826500882708281e+01,-1.280575102128856990e+01,1.192713008625714188e+01
1.066634377293618563e+01,-1.267583932037526750e+01,1.153062152628080916e+01
9.229239157358525958e+00,-1.194976929566860591e+01,1.018514397541713379e+01
9.576275445920774843e+00,-1.193467899844585745e+01,1.001577495786251859e+01
9.355071182642205940e+00,-1.175890146745848774e+01,9.642484484256041100e+00
1.019941158456014385e+01,-1.195732229056719831e+01,9.840767351687734532e+00
9.153603828691711186e+00,-1.171198346202009510e+01,9.596280959486092499e+00
1.218467198862518330e+01,-1.192295756080580027e+01,9.006579946792973246e+00
1.126940573860135331e+01,-1.170974665719552554e+01,8.796653991043642762e+00
1.206251084496331671e+01,-1.197555469042548992e+01,9.188937364716906586e+00
1.131810954010806469e+01,-1.180059158568325373e+01,9.014166462940723434e+00
1.114881629948711605e+01,-1.149539947089284020e+01,8.285500811897971829e+00
1.107841879002004859e+01,-1.155648743273117063e+01,8.470495021666744506e+00
1.169723908636960452e+01,-1.164410743191568898e+01,8.465727750067701507e+00
1.171741644508388802e+01,-1.159169922071361292e+01,8.322108212418040551e+00
1.193940430776939721e+01,-1.141152900553428395e+01,7.771096043412160093e+00
9.625332387164592163e+00,-1.136268123343178438e+01,8.512633503591930051e+00
9.477824119923067059e+00,-1.168585269620940359e+01,9.406798448256237677e+00
9.641678052261706711e+00,-1.137924156320751479e+01,8.549483118934444903e+00
8.910719801806301632e+00,-1.137414479343631335e+01,8.810572693171048186e+00
8.774267984542067467e+00,-1.128906578869665900e+01,8.640962729296560951e+00
8.953055053288855092e+00,-1.081625797212799078e+01,7.346567632157447569e+00
8.228902687817871708e+00,-1.075418406748205058e+01,7.457201596808779698e+00
1.078206783934277979e+01,-1.037426804235700750e+01,5.512988102339177132e+00
1.110456528257269682e+01,-1.030199592073934056e+01,5.204358404084544532e+00
1.112872747780697935e+01,-1.046316511347120581e+01,5.613643160072873783e+00
1.147966851031462987e+01,-1.054916473509672947e+01,5.705191975998153531e+00
1.104290674805739059e+01,-1.067334566289356701e+01,6.191425177983690631e+00
2.020153090362304837e+00,-5.669225536380782415e+00,-2.284373458654206601e+00
2.199364690290147806e+00,-5.789314543200240415e+00,-2.154628367306610670e+00
1.469484828656515418e+00,-6.306770361286214488e+00,-9.438307288994014499e-01
1.631710002358770062e+00,-5.731248239095906527e+00,-2.004214567675465020e+00
1.493063401346940822e+00,-5.853353473948833319e+00,-1.729497973154986212e+00
2.922198865735245121e+00,-7.182131218335116252e+00,1.728617941832011340e-01
3.412958718020547622e+00,-7.395945648310553011e+00,5.468104016733654760e-01
3.384886348486236152e+00,-7.314204725867821111e+00,3.440887737359163978e-01
1.889142283986930515e+00,-7.502399176952702753e+00,1.394733862450032724e+00
1.186093387788258013e+00,-7.614787300670695203e+00,1.950650281374303852e+00
4.440038668781667752e+00,-8.674966139448834213e+00,3.481881379682000066e+00
3.763216735948274660e+00,-8.297832439252498915e+00,2.756930550397236779e+00
3.890006142930149124e+00,-8.371156446146356345e+00,2.899680337603973257e+00
4.571370482879638431e+00,-8.837959088819157927e+00,3.855678788761110365e+00
3.797279378814475415e+00,-8.043252519839668935e+00,2.083341270414426738e+00
4.040395933007140172e+00,-8.022483933045359450e+00,1.938206767713867684e+00
5.358900692068399252e+00,-9.137122506233421149e+00,4.336696154006675741e+00
5.225746106143285274e+00,-8.983300416602773453e+00,3.987388590510454911e+00
5.357732730613312455e+00,-8.991232628000108917e+00,3.958451025477094376e+00
5.015269916283483731e+00,-8.493995150666560079e+00,2.796287477832050783e+00
5.440061759944719633e+00,-9.173335152712068563e+00,4.400237394109471900e+00
5.326613486696621713e+00,-8.857845511151964502e+00,3.623897658511417763e+00
2.863417535861812802e+00,-9.074582664004701371e+00,5.110774940050800907e+00
2.449894957235529525e+00,-8.315250854961364624e+00,3.294951860105407526e+00
3.384188550660285344e+00,-9.312544297354286016e+00,5.533034551434695025e+00
3.132066365363476379e+00,-8.805073091439719946e+00,4.310400989939328298e+00
2.790892318944580452e+00,-9.114863509270847430e+00,5.242546218672357483e+00
2.643462505688965791e+00,-8.783580585297549703e+00,4.437958621095184242e+00
3.108948164406979409e+00,-9.134191120539380648e+00,5.173366464004246268e+00
1.965423088648734939e+00,-8.635741973833003016e+00,4.308640044325372287e+00
1.802317112118052123e+00,-8.105690544934876840e+00,2.993991335327336856e+00
1.915052973166445405e+00,-8.679566592858670049e+00,4.441296262344492263e+00
1.677488472702480138e+00,-8.147140955873094725e+00,3.148423820342727275e+00
2.398645956010667213e+00,-9.186884144286267428e+00,5.576676811476252382e+00
2.045626060258681989e+00,-8.236982831795545579e+00,3.243488083208565520e+00
5.104129299331857439e+00,-9.216055598018696671e+00,4.637183298408819709e+00
4.945100675180109207e+00,-9.226489434597972661e+00,4.723940774247349594e+00
6.358857293029989144e+00,-9.909189866689317228e+00,5.965548021033530546e+00
5.922896396104111894e+00,-9.375289943390058056e+00,4.743277567038353126e+00
6.283037572064863241e+00,-9.786798648562040626e+00,5.676303911422351689e+00
5.310777222000374387e+00,-9.439203492139283114e+00,5.138872424449985488e+00
5.613644467127023141e+00,-9.415428427977353465e+00,4.963510379058580391e+00
6.558176554980977180e+00,-9.851409054103385188e+00,5.740771535793506075e+00
6.826912874130711018e+00,-1.040928646013346892e+01,7.088026687028476047e+00
5.134634010430841222e+00,-9.459789895084929512e+00,5.258404067765894752e+00
5.479449828716701276e+00,-9.621687945690924337e+00,5.549259388155447503e+00
7.434002781251655811e+00,-1.058897455584211222e+01,7.326647339100541778e+00
3.935952731744475130e+00,-1.003556591628350603e+01,7.202716842082831583e+00
3.809526293959955012e+00,-9.983731108576344937e+00,7.115610746928139108e+00
4.493737351702937310e+00,-1.039330751651201368e+01,7.921984607294183967e+00
3.742732625250851264e+00,-9.985064815610304123e+00,7.144133703300366456e+00
4.537981420948428379e+00,-1.051880998018494573e+01,8.231137441958209067e+00
4.175033775893490784e+00,-9.836320887669817381e+00,6.595830172133527292e+00
4.318386275100479565e+00,-9.983439444538566576e+00,6.923910353944649820e+00
3.275201771359603775e+00,-9.631310298794124591e+00,6.401345748166654914e+00
2.721778562254991485e+00,-9.402138911004119137e+00,6.014159784614333759e+00
2.900156032129215689e+00,-9.355730520601843736e+00,5.826763528385157542e+00
8.013357194327570099e+00,-1.115827981257816859e+01,8.587000951204649013e+00
8.210712410832412544e+00,-1.126714069549031905e+01,8.795538889295203333e+00
6.120918405124049499e+00,-1.146402449806620005e+01,1.009072422670899627e+01
6.256044936863925265e+00,-1.128975634729144950e+01,9.587717160340291755e+00
6.112750382461912046e+00,-1.111473941206475757e+01,9.187168610950154246e+00
8.878306355820127393e+00,-1.219044470277641956e+01,1.094164697075227366e+01
9.379327961001980185e+00,-1.243924532613476508e+01,1.139944885002787345e+01
7.754101111640955502e+00,-1.243251490255993730e+01,1.199181780712707024e+01
7.658392974757847860e+00,-1.236776530902987226e+01,1.185966443050775609e+01
8.539027012866474919e+00,-1.251609246888441973e+01,1.191424483027699210e+01
8.389262456250301980e+00,-1.241803732871435528e+01,1.171589155591874132e+01
1.085342634082671331e+01,-1.353571623520167755e+01,1.369116268222829547e+01
1.136244435165265365e+01,-1.370034560800624490e+01,1.392574639134897296e+01
1.100349947731144695e+01,-1.365507599539499672e+01,1.394354983131994175e+01
1.141889299117940837e+01,-1.410298348656760226e+01,1.494659861816777990e+01
1.173464969110823475e+01,-1.430349451693983909e+01,1.534676075889394298e+01
9.853455769214461313e+00,-1.391228371160999444e+01,1.504153172925152759e+01
1.015619783540765653e+01,-1.409603896481230834e+01,1.540339018218259781e+01
1.022201934181961036e+01,-1.411383860872062002e+01,1.542471585160606651e+01
9.604467559873015148e+00,-1.350087917726703957e+01,1.407028557202038499e+01
9.906404699616899734e+00,-1.363010981486428186e+01,1.429131113077678883e+01
1.034926481114157326e+01,-1.398747549438851578e+01,1.504976964919942972e+01
1.238190377349916105e+01,-1.442085485311288195e+01,1.554818523069423186e+01
1.219088896077030526e+01,-1.442271480986461185e+01,1.562208990440841738e+01
1.231137234010471460e+01,-1.460381105400265156e+01,1.654643369219090232e+01
1.283888017630626521e+01,-1.463524096603251579e+01,1.655721341617563525e+01
1.300628620251962708e+01,-1.475712565734567860e+01,1.715308280654497253e+01
1.207507229045009112e+01,-1.489169827641216237e+01,1.809757755519988365e+01
1.171353671472149571e+01,-1.479464158342567615e+01,1.771042836784658903e+01
1.085571065680495906e+01,-1.455617779112842669e+01,1.675200921564663403e+01
1.101022342095685502e+01,-1.446227471383248542e+01,1.622222916619055155e+01
1.121345017422756563e+01,-1.445323605156740143e+01,1.610641466214025996e+01
1.109603118749574335e+01,-1.441553765956037836e+01,1.594893883099708809e+01
1.367659798097528423e+01,-1.512915677767360378e+01,1.872939808824018826e+01
1.412259350605311248e+01,-1.532237983525676128e+01,1.940064824178885772e+01
1.348187872846958157e+01,-1.494832585574473249e+01,1.803838934359947643e+01
1.451318666617106601e+01,-1.551645720514316018e+01,2.009104886442438698e+01
1.453541872646018440e+01,-1.565562031784362773e+01,2.067519919005987106e+01
1.417709422222583626e+01,-1.543368145067107733e+01,1.984690053439404522e+01
1.349824900511405801e+01,-1.517236211944642577e+01,1.896279469115622973e+01
1.290946265419054306e+01,-1.537621100353799974e+01,1.999384841225651499e+01
1.432753852607429224e+01,-1.585903469728611270e+01,2.161344990021254020e+01
1.357139689600966470e+01,-1.561920326677680215e+01,2.082620225309955231e+01
1.289015613277162053e+01,-1.525820808322211874e+01,1.949888822558463630e+01
1.292663521024303108e+01,-1.516054007084130362e+01,1.908027661534862318e+01
1.302865192096644620e+01,-1.525981948488160000e+01,1.946694411752793030e+01
1.417044335254649035e+01,-1.573373539917042052e+01,2.112982492840662019e+01
1.565310456852679977e+01,-1.610825927798039459e+01,2.227212684066198989e+01
1.583566891050632641e+01,-1.618917236462825571e+01,2.263769783955341097e+01
1.493102180558247483e+01,-1.605843171619266485e+01,2.227819037936002999e+01
1.054364970291127790e+01,-1.317222314183490894e+01,1.286509829636814928e+01
1.004398038710099428e+01,-1.276778127316279132e+01,1.200280443474014902e+01
1.033037711340076825e+01,-1.321318829387712590e+01,1.305151091623145554e+01
9.625268407205027188e+00,-1.278789322449901000e+01,1.221219219000682443e+01
8.814999435342397049e+00,-1.319802983071415348e+01,1.358073562102144294e+01
9.036868432639270310e+00,-1.332088069706402855e+01,1.381636714559264689e+01
9.078142779767512494e+00,-1.295524194820615449e+01,1.285185768317676924e+01
9.131981043840227130e+00,-1.318157894652509654e+01,1.341912065018453859e+01
9.201420341600268671e+00,-1.300660966642183425e+01,1.293893705706050667e+01
8.591266622575826517e+00,-1.302895072840628110e+01,1.322581512315999497e+01
7.648487719143282071e+00,-1.219483597858349277e+01,1.141447214113652464e+01
7.580071625661867429e+00,-1.186072176416358204e+01,1.057288222507875552e+01
8.854030958702816534e+00,-1.187416826163418548e+01,1.012972633105358788e+01
8.449442181640357319e+00,-1.185648315657369878e+01,1.023572041021339629e+01
9.163537192399910936e+00,-1.209945403971531164e+01,1.059837915179274326e+01
8.399677977694027575e+00,-1.145038857864445703e+01,9.200252266699497028e+00
8.724907521144729117e+00,-1.157370319312965634e+01,9.398253227046124536e+00
7.981283347226996838e+00,-1.143139822848975484e+01,9.308004130590859404e+00
7.410143516755324455e+00,-1.184410349689202668e+01,1.059350330235219495e+01
7.071506516283307953e+00,-1.157715186200423396e+01,1.002770251148831804e+01
4.892169224081204248e+00,-1.083496089666014939e+01,8.918885267241901005e+00
5.305274105720593880e+00,-1.100071514730560196e+01,9.194166663346560853e+00
5.772369084294754593e+00,-1.088465784388152002e+01,8.717636167274516623e+00
5.431781967859039995e+00,-1.086667106933960980e+01,8.798728664895239859e+00
7.494300354937651676e+00,-1.091936929904089659e+01,8.161589370555756062e+00
5.150067869422612077e-01,-8.196598467455240566e+00,3.368590886115925720e+00
-1.486727594100472061e-01,-7.022946310138390658e+00,5.659612270802059086e-01
-8.719699965105576211e-02,-7.078900515291612017e+00,6.798645081894960640e-01
3.263049095970167457e-01,-7.076701507493009302e+00,8.921073703202377914e-01
1.152415193802101001e+00,-7.726858522181495381e+00,2.254358623991494781e+00
5.828216987867413934e-01,-7.937069169857855044e+00,3.012565119684891712e+00
8.745472476308204790e-01,-7.208898818031787670e+00,1.059788540590060002e+00
6.898009422819111336e-01,-6.897217728503861167e+00,4.686985799921847828e-01
1.914503228291138726e+00,-6.500490050252702545e+00,-8.147350958051795544e-01
1.926719874030895951e+00,-6.973775365221441369e+00,9.257382606082398269e-02
2.242781162035343279e+00,-6.764020268686602222e+00,-4.614796032143875237e-01
2.659951309758874949e+00,-7.695287218978967836e+00,1.606836054139951564e+00
2.746479112426317037e+00,-7.888348723024312115e+00,2.075536415021645098e+00
2.999266093302044744e+00,-7.635936912829873968e+00,1.325450844523921035e+00
2.295185337243393242e+00,-7.666676699119274296e+00,1.669450399589348599e+00
2.196822946477239746e+00,-7.548400243064043558e+00,1.399333656215904220e+00
4.290660572013202056e+00,-6.879117566006789808e+00,-1.071300371542001528e+00
3.894020182249846584e+00,-6.867566704358825547e+00,-9.581850743691617822e-01
4.186930373379341930e+00,-6.536813175469530002e+00,-1.703371852555846999e+00
5.313889371255309690e+00,-7.563578705001100744e+00,2.690805957745849852e-01
5.292764839921343167e+00,-7.660051389156371293e+00,5.274628582808533750e-01
5.027120310842573048e+00,-7.576863671606584916e+00,4.112380370466439672e-01
7.362271416551504188e+00,-7.371972727171410611e+00,-9.976138127272715650e-01
7.808121269350164262e+00,-7.595229949443160322e+00,-5.857649502995485591e-01
6.563573484708507877e+00,-6.881737288089803783e+00,-1.909092186017064208e+00
5.497082387506232237e+00,-6.657087450888749203e+00,-1.980117587925970923e+00
6.739717526751515919e+00,-6.915085090389617051e+00,-2.306893157444941167e+00
4.529689038051236238e+00,-6.682181842078607659e+00,-1.556923722744068428e+00
4.578213734174035210e+00,-6.785712457427272248e+00,-1.368220152241196530e+00
5.983319675489928713e+00,-6.873695393983868307e+00,-1.740727461652598507e+00
5.495132580857807092e+00,-6.734748904907301714e+00,-1.828961190478288756e+00
6.533784249373465691e+00,-7.450525803386122803e+00,-4.821319101579613076e-01
7.005460808132982997e+00,-7.355348325466474435e+00,-9.061725379869862707e-01
6.465936204145967814e+00,-7.526286228488234364e+00,-2.600159618088859759e-01
5.441177540144567004e+00,-7.408703123344938746e+00,-1.807353371076141357e-01
6.317754792442621614e+00,-7.549114530086163732e+00,-1.451594833575029497e-01
6.522186425796089537e+00,-7.561556117239756958e+00,-1.895685139905403105e-01
6.141009985772930335e+00,-7.728368110799292978e+00,3.864607943356590525e-01
4.462971455209567395e+00,-7.525651666636254511e+00,4.900185604330751232e-01
4.446221993162135178e+00,-7.770652732528982476e+00,1.132235180164674837e+00
4.329039163325676398e+00,-7.718097296248658701e+00,1.039790859933937384e+00
3.347971774449753468e+00,-6.913053288120335260e+00,-6.618205709738962383e-01
3.562178406056177415e+00,-6.900154671593653255e+00,-7.680051258503741707e-01
3.368040349884282136e+00,-6.653130431146636603e+00,-1.124636486192928331e+00
2.530773363420672162e+00,-6.541866008116503650e+00,-9.772407524488464503e-01
2.727078606179105691e+00,-6.433191506152171613e+00,-1.255151502292198629e+00
2.966143964677418587e+00,-6.809016933705094310e+00,-6.874460159728066344e-01
3.736623623289891061e+00,-7.857901089505578085e+00,1.624987107258993646e+00
3.582534471443385549e+00,-7.721332653078784247e+00,1.328314828510102075e+00
3.117788363302184784e+00,-7.571169128828765693e+00,1.112863297040116883e+00
3.347096440506517112e+00,-7.614665781196904071e+00,1.139754146034883675e+00
1.852007610674020199e+00,-8.013118891299710000e+00,2.735053965810442911e+00
2.241102544347766568e+00,-7.982689642219495951e+00,2.510066657994790340e+00
1.548838334261170679e+00,-7.692225877749629070e+00,2.015848323213229598e+00
1.208983571081256869e+00,-6.786348966305382646e+00,1.430169787532165060e-02
1.249443402532787850e+00,-7.162696367702171329e+00,8.089608887912795865e-01
1.401749478467093191e+00,-6.818285081218422583e+00,2.145178517448442790e-02
1.355462941596464255e+01,-1.162617785878768828e+01,8.320097967853643084e+00
1.355376322158350888e+01,-1.169213147856678781e+01,8.314472478546399259e+00
1.354211764703652143e+01,-1.189465308194723292e+01,8.278751847260640062e+00
1.328565664463443952e+01,-1.129433570997472991e+01,7.786766422935263776e+00
4.989350724791537850e+00,-1.278115640709043177e+01,1.448050465896666239e+01
5.317712827463993541e+00,-1.283339359009522340e+01,1.525129952421956858e+01
5.280889590985175630e+00,-1.301831401275673095e+01,1.514694526830872334e+01
1.213957345061925608e+01,-9.813302987039428160e+00,5.416917457654733425e+00
1.188732087803894011e+01,-9.948081588536878073e+00,4.870231616618370118e+00
1.178725686731012701e+01,-1.006568325293588373e+01,4.647651095463803728e+00
3.795639397354808153e+00,-1.129488082209509159e+01,1.168250205458958035e+01
4.016388442804052161e+00,-1.153216264450557205e+01,1.222216678314526384e+01
4.077140189259490732e+00,-1.139304465847935788e+01,1.238550396731742076e+01
1.706771239505798476e+01,-1.575487875880607547e+01,2.261851819089354620e+01
1.365736922767041506e+00,-5.249042578993504904e+00,-2.221329730814323611e+00
6.803515477648465648e+00,-5.857934080872816196e+00,-2.314735959597197024e+00
6.672149632638573635e+00,-5.077516312909843954e+00,-2.340915049408616611e+00
7.033856978602152310e+00,-5.814461007538419324e+00,-2.004609956084475897e+00
6.586498465604205599e+00,-5.164701663473271864e+00,-2.473353756689606442e+00
6.469460974880935744e+00,-5.966469044964440194e+00,-2.800981329238220852e+00
6.522308706296669811e+00,-5.434806361722162471e+00,-2.618253199250814234e+00
3.755811829101691757e-01,-7.889691454952325600e+00,3.522615604988132532e+00
2.530117876094193363e-01,-7.679442838430705187e+00,3.125949851346142339e+00
2.767062824678525601e-01,-7.907607790419362459e+00,3.209375115759472763e+00
5.247873693951197183e-01,-6.643765166447991533e+00,3.953726417352342537e+00
3.575370883859712023e-01,-6.751400338151479552e+00,3.424880079911845066e+00
-8.233368110263050710e-02,-5.144039978948426572e+00,7.821651459526801631e-01
4.552819001657866238e-01,-6.316513761000258853e+00,3.207094976651044149e+00
1.588743496250171638e+00,-7.811092976017656397e+00,6.235395693917197946e+00
1.310025275802009226e+00,-7.422668051304099457e+00,5.450419915558898154e+00
2.088044699685460692e+00,-8.500037721862270246e+00,7.554365081508820801e+00
2.820937201964389018e+00,-9.225247610606674087e+00,8.786780279226825030e+00
3.519056531134527432e+00,-1.015428350113656819e+01,1.051154367425563230e+01
3.152520921403202614e+00,-9.774640603267069849e+00,9.832934141222972713e+00
4.562549659966974147e+00,-1.155229566799270025e+01,1.332134560254093714e+01
5.782739946951448218e+00,-1.277592112772394906e+01,1.601386106850130631e+01
5.714531215478274362e+00,-1.269880265458074931e+01,1.578833385712871618e+01
8.993034522520922280e+00,-1.445627316066154933e+01,1.997258589472579260e+01
7.671642960599913685e+00,-1.391601547065321398e+01,1.847974228921478712e+01
1.021683769884824500e+01,-1.482665520542916582e+01,2.116186157019249947e+01
1.058441730548588033e+01,-1.491299290171888003e+01,2.136698669733227263e+01
1.322697833271605283e+01,-1.535113557890875846e+01,2.316352090449875334e+01
1.247044008959063532e+01,-1.530957036250284808e+01,2.277344185947202249e+01
1.460182794555463204e+01,-1.534061913217946937e+01,2.341487832018135151e+01
1.718860946477250806e+01,-1.526220761183884456e+01,2.243426404580103650e+01
1.838032573666123781e+01,-1.499600270665068891e+01,1.972757115147469875e+01
1.784894326482061899e+01,-1.425970176485555285e+01,1.644980115561516953e+01
1.845801608108742897e+01,-1.486989493134426255e+01,1.914471967446258560e+01
1.729892368043390860e+01,-1.371642157860954292e+01,1.475367197354729498e+01
1.784655633172930322e+01,-1.409167743100043424e+01,1.588736783829316934e+01
1.515666766244504515e+01,-1.231884623453097305e+01,1.128415217120984160e+01
1.600269576242619252e+01,-1.290799950943141461e+01,1.253391021521737159e+01
1.454163222480612028e+01,-1.193764221546711823e+01,1.048783025580142869e+01
1.289284630273022714e+01,-1.022513065335027882e+01,7.020147216974886639e+00
1.025879819765165912e+01,-7.774624874105794170e+00,2.702505733665494070e+00
1.068772013427413015e+01,-8.217751244014028345e+00,3.451537835175691349e+00
8.688102617866327648e+00,-6.539661297281323726e+00,4.928318922313588146e-01
8.695258898029331718e+00,-6.571315403654354625e+00,5.585722180865859698e-01
7.635510693774566704e+00,-5.666935199709405069e+00,-1.109920552484402023e+00
6.993471170283602767e+00,-5.349056031744979123e+00,-1.630080058987896763e+00
4.555980358090781834e+00,-4.119373466585138033e+00,-2.939409452185461902e+00
2.856591059916365083e+00,-3.724795063715170329e+00,-2.442377052505980473e+00
3.317662841979925226e+00,-3.862615871241801280e+00,-2.554348645820136099e+00
1.749344268154877646e+00,-3.742392683002814024e+00,-1.950468858574069486e+00
2.256684373700261759e-01,-4.423165482511693725e+00,-8.499005747267212030e-01
5.564680396990873135e-02,-4.795330236632673326e+00,-8.324870931490959691e-01
3.925170427468280820e-01,-5.312077766087893060e+00,-1.549731033212070841e+00
3.064124576167959191e-01,-4.959329594430442079e+00,-1.239641857204148323e+00
6.385584375332040707e-01,-4.361078763889627119e+00,-1.321970391285875124e+00
9.819692436362634780e-01,-4.282325384145416969e+00,-1.611841263852143769e+00
1.011933067407011499e+00,-3.949060604473870306e+00,-1.476667936267098469e+00
9.750964735124316718e-01,-5.228153689376071611e+00,-1.949776610891492012e+00
9.653786203820189371e-01,-5.044957610333831610e+00,-1.886210168452709723e+00
1.292011793009415044e+00,-4.951301380992911838e+00,-2.078495814600158198e+00
1.845333866857175487e+00,-3.840601085951931282e+00,-2.077616285218619296e+00
2.416857671091138471e+00,-5.045427414104053376e+00,-2.777064057123252994e+00
3.067668028170915662e+00,-5.018666047088025550e+00,-3.057914407059705297e+00
2.886203846389076233e+00,-5.189914482210767233e+00,-3.032111109346116606e+00
3.250706540546772771e+00,-4.662896946805038745e+00,-3.030460662699100638e+00
3.058652346241556685e+00,-4.125246267968889491e+00,-2.783462904715415576e+00
3.112794306912511466e+00,-3.750421850095616350e+00,-2.656787895153124524e+00
4.196944778847210955e+00,-4.926137479226131433e+00,-3.259993598640926749e+00
4.010404727245673762e+00,-4.966701397523955563e+00,-3.269667267340649275e+00
3.855315992430575545e+00,-5.320002791825454658e+00,-3.394613413467114427e+00
4.506944419990414730e+00,-4.766960076152503945e+00,-3.209125731123108949e+00
4.101842600835175823e+00,-4.118565021733054721e+00,-2.960533711091702713e+00
4.378142251534702822e+00,-4.214795962289016096e+00,-3.002065700974007711e+00
5.315552760372524332e+00,-4.974524467539700900e+00,-3.079039516256653286e+00
6.271149017014989724e+00,-6.276698473957626589e+00,-3.016737692954375660e+00
5.364925254495489071e+00,-5.803123986375298138e+00,-3.326833953222767093e+00
4.982437787843073451e+00,-4.974100145107783533e+00,-3.250281438540637780e+00
6.213106191021042335e+00,-5.557806050346733251e+00,-2.823099903319397086e+00
6.362246038591738539e+00,-5.870187608811162860e+00,-2.847098775112312907e+00
5.800382571229215856e+00,-5.138105813179697279e+00,-2.892111663554555179e+00
5.688256341230185420e+00,-5.016144191954919229e+00,-2.908442114623543517e+00
7.297314695091877468e+00,-6.511855993781709095e+00,-1.769804212347533934e+00
7.436548954294782021e+00,-6.537758068292484737e+00,-1.581242474932599507e+00
7.142607461060298313e+00,-5.776543734201040614e+00,-1.854202672208774771e+00
7.352417921677514734e+00,-5.885439996244196337e+00,-1.582853815931452246e+00
7.444718269678812561e+00,-5.626679853993604041e+00,-1.410985076607438771e+00
7.726486929505756329e+00,-6.521146396013600466e+00,-1.179454536486039373e+00
9.243094355321998634e+00,-7.740643892091172873e+00,8.478593293013538812e-01
8.445964561673257265e+00,-6.713898050927378236e+00,-2.124871751319892255e-01
9.192096153033924466e+00,-7.969114833213069460e+00,7.349539416699686356e-01
9.146096230632203117e+00,-7.383168503269306626e+00,7.544578058521613784e-01
8.626852973634052901e+00,-7.204457385652845325e+00,-1.132814187231723224e-02
9.890103000029334623e+00,-8.743840203604156258e+00,1.682496372283944552e+00
8.464410518721647847e+00,-7.413476121435990329e+00,-2.914885339713357837e-01
9.513709424759651867e+00,-8.404168677106351737e+00,1.159578887637899847e+00
9.063647984795856871e+00,-7.076451691620635920e+00,6.745344525000742664e-01
1.007832382245578984e+01,-7.539324053973695428e+00,2.144869112363466002e+00
9.859844348877281561e+00,-8.084913322674339042e+00,1.733971707612087521e+00
9.867033779425128159e+00,-7.424829346763162086e+00,1.841341826784571367e+00
1.010625395707526408e+01,-8.682515245576844620e+00,2.020123798609409604e+00
9.855590720527674264e+00,-7.726348513601311474e+00,1.779929507045931558e+00
9.439463567356174423e+00,-7.072516483679615718e+00,1.244747559526306446e+00
1.026335084942698117e+01,-8.158840448959930214e+00,2.345506132179516534e+00
1.127057089713016147e+01,-9.647085456691833372e+00,3.838642402960511735e+00
1.104642740893409503e+01,-9.678121254915588167e+00,3.460267243009058191e+00
1.076956044097429199e+01,-8.787771818143866653e+00,3.111076206189451021e+00
1.034732027612746919e+01,-8.645394422522267419e+00,2.423854365114148202e+00
1.158059592089908563e+01,-1.004016043652922718e+01,4.306508350247374217e+00
1.027318881239330750e+01,-8.327826096109085086e+00,2.340433662149395744e+00
1.087169841833308936e+01,-8.532785575921453258e+00,3.313180494226901196e+00
1.159056625707158261e+01,-8.957077685211508822e+00,4.454892346653613444e+00
1.166810735891834483e+01,-9.438044615576936636e+00,4.525389709594388243e+00
1.049302474787248940e+01,-8.014107717862440694e+00,2.747479943698094118e+00
1.107165891135254121e+01,-8.733450598979212387e+00,3.620760099468760096e+00
1.150846061251629493e+01,-8.889416306146493696e+00,4.326813863166664831e+00
1.234743365700987994e+01,-9.809924199351314655e+00,5.857791743067606305e+00
1.232978658635327029e+01,-9.972437227354168598e+00,5.811087627215376195e+00
1.268340169663706085e+01,-1.085322852527418291e+01,6.528377394936737410e+00
1.258091214353245313e+01,-1.018808057543796330e+01,6.338935611713564455e+00
1.359619667869544912e+01,-1.181961869343077787e+01,8.398098513613327043e+00
1.364925657524394431e+01,-1.176568922185209232e+01,8.529511499503373173e+00
1.368917848130404735e+01,-1.106541513706867264e+01,8.634778982159010852e+00
1.521720967539899938e+01,-1.307646927696195149e+01,1.118953919251844553e+01
1.527196250039164482e+01,-1.277013193891780141e+01,1.131001465945956852e+01
1.479137776873093557e+01,-1.241961398795023541e+01,1.064135108034472843e+01
1.564739092862896541e+01,-1.335868118507838531e+01,1.179210887824836718e+01
1.483397760078090144e+01,-1.236739430361488701e+01,1.071127647813212214e+01
1.613451414244764237e+01,-1.357771031048390675e+01,1.249262154401343849e+01
1.602556376167994046e+01,-1.316892364573079099e+01,1.239016894045697548e+01
1.569711429063461772e+01,-1.301065630581732258e+01,1.191649346521143471e+01
1.620669524494723390e+01,-1.344081666637111283e+01,1.262306033155747365e+01
1.610954634970182298e+01,-1.360387621420628257e+01,1.245075316901836260e+01
1.655649891852226574e+01,-1.393688923793540546e+01,1.317341641765046134e+01
1.774606787965957722e+01,-1.407856334244671359e+01,1.563456419556934662e+01
1.752993889735699895e+01,-1.393381881116856746e+01,1.519831493767273400e+01
1.731317487518623466e+01,-1.393262055248914599e+01,1.474758581734482732e+01
1.723358200290875430e+01,-1.379898931194180989e+01,1.459429243493064199e+01
1.711776941363033799e+01,-1.424951169418985941e+01,1.431064770212915249e+01
1.719357194104187414e+01,-1.429299258163362474e+01,1.446392891171489659e+01
1.733466067995171400e+01,-1.444599548271169454e+01,1.474194802768906243e+01
1.753030422817396783e+01,-1.462941850989119175e+01,1.513037018375316123e+01
1.770699924912134549e+01,-1.464654040713879724e+01,1.549617372903349555e+01
1.800758206257374638e+01,-1.461525791861051360e+01,1.660452180274943856e+01
1.792628750368264434e+01,-1.433383862083548266e+01,1.614566658704444535e+01
1.817273452288701563e+01,-1.477893655128437089e+01,1.743763367479037640e+01
1.800217731139234445e+01,-1.462746239796703307e+01,1.658152039540249945e+01
1.792662137277479673e+01,-1.494838029762133225e+01,1.629647772247058413e+01
1.819375780805627585e+01,-1.494517191135169298e+01,1.757898652110734261e+01
1.815955721891094043e+01,-1.510295369834149071e+01,1.743918219809492243e+01
1.844649241261934947e+01,-1.579109115787106177e+01,1.889786327509392549e+01
1.811887853864278242e+01,-1.508779837790807754e+01,1.724276154416481432e+01
1.841445745468664441e+01,-1.546042977329717516e+01,1.870304996351259419e+01
1.803994002405480401e+01,-1.515292063342755569e+01,1.687349580655599368e+01
1.817489979459373473e+01,-1.512725923014657781e+01,1.751560705669943729e+01
1.843022537599437882e+01,-1.546251672257810306e+01,1.973872370124369979e+01
1.832567298503698083e+01,-1.520714164924632428e+01,2.077053227018360815e+01
1.828642646456728471e+01,-1.523075018909834988e+01,2.101630580571191587e+01
1.830142612403516722e+01,-1.558022144438005796e+01,2.052557007471301631e+01
1.829773220710394810e+01,-1.544100962706667879e+01,2.070097830383931381e+01
1.825539475692445990e+01,-1.546598779490947351e+01,2.098439174902178195e+01
1.799240752631392226e+01,-1.537757884294489763e+01,2.171030410464382499e+01
1.776713385869458506e+01,-1.562674513789591479e+01,2.197122010553152904e+01
1.741591435370442298e+01,-1.557018396521458570e+01,2.236483600604220001e+01
1.722200817924837679e+01,-1.568427243824132944e+01,2.250219143550502565e+01
1.674567680544496540e+01,-1.578075241683590058e+01,2.281378718691353669e+01
1.483710739147666757e+01,-1.606043699208571240e+01,2.336464187406306081e+01
1.519764661847913700e+01,-1.548480270768501299e+01,2.351165422623103751e+01
1.423979975366944117e+01,-1.586513344718825991e+01,2.339127427476915955e+01
1.431671298755069799e+01,-1.599423661897595395e+01,2.336601323105163175e+01
1.370835775064131745e+01,-1.573947306599741403e+01,2.335031988557715721e+01
1.337783318204131966e+01,-1.560922983648566387e+01,2.326369832457483611e+01
1.317589843427546370e+01,-1.562914220394012155e+01,2.316810261207924526e+01
1.216206367649628817e+01,-1.602039866017434377e+01,2.261245176331906492e+01
1.247942636985686349e+01,-1.564388372273117156e+01,2.286094147496615392e+01
1.285706115157578111e+01,-1.559661988664042198e+01,2.303870725528211949e+01
1.095198981270702276e+01,-1.578124481257661138e+01,2.167780561444432053e+01
1.125313646321607131e+01,-1.598705821506262836e+01,2.192276155524359638e+01
1.150732393000807718e+01,-1.603033377970181306e+01,2.215560950751851266e+01
1.006248880304895543e+01,-1.560307268523829372e+01,2.086832554433909692e+01
1.167102776987676194e+01,-1.575147328760799681e+01,2.236692142284331908e+01
9.951130306791299063e+00,-1.497074350906045836e+01,2.091123565360932446e+01
1.000474619922021624e+01,-1.538628565212465560e+01,2.086086059405400306e+01
9.869470846190537827e+00,-1.484595119699457477e+01,2.086440284874619522e+01
1.040007668087356407e+01,-1.522873184601008845e+01,2.127281186021182791e+01
9.448870492761647810e+00,-1.552689150498936499e+01,2.030129339535041311e+01
8.742640110503463902e+00,-1.533367856146884201e+01,1.955666463152784473e+01
7.387089067827535160e+00,-1.472283315212978039e+01,1.809503193336356475e+01
8.998112803793054226e+00,-1.509554798212438698e+01,1.990711199079758131e+01
9.086891088700070895e+00,-1.492467464856834525e+01,2.004759980023613508e+01
8.994192657168852634e+00,-1.494445924433340167e+01,1.993458078444760417e+01
8.231969345600861132e+00,-1.431827049741976765e+01,1.916830216554986066e+01
7.561818865241891174e+00,-1.393047961594372275e+01,1.845833600395792828e+01
8.776055368016944414e+00,-1.438166775192488345e+01,1.979448483387108837e+01
7.446871890444926478e+00,-1.398296179471871170e+01,1.831300658543317894e+01
7.348590088750470706e+00,-1.435419100835700235e+01,1.812414826257111855e+01
5.871349377368686007e+00,-1.296776314515339124e+01,1.612457763446181502e+01
6.931582645786980024e+00,-1.391736408120176804e+01,1.764861811022366567e+01
6.842536478475884643e+00,-1.369558509028873061e+01,1.754250955650495669e+01
6.696692067482669763e+00,-1.364493997423455696e+01,1.732053527154765860e+01
5.549933110367071265e+00,-1.269125319793849549e+01,1.566080262970496229e+01
5.460654959214629400e+00,-1.326738426746024402e+01,1.542557269611076975e+01
5.429459520963447083e+00,-1.283068347046543956e+01,1.544719115646540786e+01
5.941252940411495764e+00,-1.331784976159249823e+01,1.617993037513419807e+01
6.854317304436372993e+00,-1.439972496670916691e+01,1.745252595642761406e+01
5.446950192272436375e+00,-1.300553149160060684e+01,1.544647022066789965e+01
4.648458843083304259e+00,-1.191025849969621220e+01,1.373228581363615497e+01
4.721042503856465622e+00,-1.185531189216501247e+01,1.391588926996900355e+01
4.643097100573971403e+00,-1.236765309319135220e+01,1.367987596407899176e+01
4.810487791397433099e+00,-1.276437306725434340e+01,1.405111662560008767e+01
3.691484676789523522e+00,-1.123494790243022834e+01,1.142259543386148835e+01
3.432994616958985112e+00,-1.063786762000284014e+01,1.080394377651890458e+01
2.396061453060321256e+00,-9.435853850112980723e+00,8.292214946334865999e+00
2.199595643383535304e+00,-9.008076659270621178e+00,7.835061286363115940e+00
2.678152558925942728e+00,-9.604257837229321026e+00,8.979975489543560840e+00
2.648523477442877194e+00,-9.821676652407441921e+00,8.891196260860557032e+00
2.803555954585843502e+00,-9.607736779164543606e+00,9.290741366451667815e+00
2.457978131941660926e+00,-9.687899917733311383e+00,8.428039891911303982e+00
2.345674675606170823e+00,-1.020335899301261584e+01,8.113758290461385414e+00
2.159352012395899578e+00,-9.830884553092081646e+00,7.677932507274718432e+00
1.929743443633764599e+00,-9.007789634283403402e+00,7.166217106638142376e+00
2.180836770307732486e+00,-9.168581155037070829e+00,7.777310786195754666e+00
2.204661629715773508e+00,-9.328868598911974175e+00,7.825191792697825832e+00
2.024807763687172191e+00,-9.840418511437922788e+00,7.343822975481837823e+00
2.391016330224188913e+00,-9.711444768397518246e+00,8.260393999765668127e+00
8.095573324310718633e-01,-7.194120052977803326e+00,4.637975625747678521e+00
1.524158151397510430e+00,-8.946847508410030514e+00,6.186845547135166434e+00
1.116692136822811321e+00,-8.013634326952987053e+00,5.298278137384279773e+00
1.132938519441087699e+00,-8.000917049440616324e+00,5.337780541047192351e+00
1.358254827728786474e+00,-7.726292121084658682e+00,5.893641590633778016e+00
1.692727611614811778e+00,-8.829794466794307795e+00,6.595497947304458819e+00
1.597220492622013488e+00,-8.621090961983997047e+00,6.386404929418041831e+00
1.027533243683485864e+00,-8.135579694283830321e+00,5.080540111976425521e+00
1.547711487024343135e+00,-9.260847557578136602e+00,6.218115359303675760e+00
4.959563023233064527e-01,-7.635869565695159622e+00,3.872435538512328801e+00
5.500314297346164949e-01,-7.108583658934598759e+00,4.035877554720831206e+00
7.623149121767882619e-01,-7.459722439237432390e+00,4.507698830604196516e+00
6.858463028147578910e-01,-7.047659593742742423e+00,4.357768079417763118e+00
1.176420256400597886e+00,-8.251032427536031832e+00,5.420632015659203162e+00
1.513551250268484694e+00,-9.115211107100922305e+00,6.148441680005960919e+00
1.387292623889759824e-01,-6.359587436249989345e+00,2.705664444049724615e+00
4.430540902807589276e-02,-6.627576666221247415e+00,2.410720773879570622e+00
1.458150066435823788e-01,-6.932199161059826586e+00,2.755114557108695017e+00
-4.000076436261057466e-02,-6.368597141346353574e+00,2.129679136672240958e+00
-2.681863309074472568e-02,-6.442966564899240467e+00,2.175116417297397575e+00
6.147917576114370064e-02,-7.408778774406789225e+00,2.503847094687521313e+00
-8.449646679963329632e-02,-4.857607198394667591e+00,-9.429354926777211432e-02
-1.334968143948049857e-01,-5.108753200126614935e+00,-2.845232222715221582e-02
-2.431016239105536769e-01,-5.375893648657317669e+00,6.395615227613991038e-01
-3.410310953008561796e-01,-5.806430085626882232e+00,8.973302149961650542e-01
-3.398612843645052450e-01,-5.780293668486894632e+00,9.313440873041010093e-01
-2.126799318867789168e-02,-4.789578914715780122e+00,-7.299660390369133722e-01
-7.462787077795685065e-02,-4.961762305308141663e+00,-4.226956027133068616e-01
-1.762437829748000340e-01,-5.580930080720094999e+00,-5.889797057157348803e-01
-1.584283542256388344e-01,-5.481034736756037695e+00,-5.821676526737942226e-01
-9.958976850875078668e-02,-5.213048655929931385e+00,-7.194309640112486193e-01
1.420908206669065521e+01,-1.248573662425604880e+01,9.700984154668450543e+00
1.430788017827043923e+01,-1.261055950383736324e+01,9.852341591846085933e+00
1.431717842487184100e+01,-1.202138723834687362e+01,9.922430288959706246e+00
1.451131895747798417e+01,-1.235736678171630487e+01,1.021564859528002600e+01
4.223045475845388808e+00,-1.142283239425779229e+01,1.274069231495517585e+01
4.386447438502697693e+00,-1.182866622159610692e+01,1.310348712467799537e+01
4.315580726866827810e+00,-1.205902061839904604e+01,1.291251553451258971e+01
4.059954992081230785e+00,-1.207234406881400091e+01,1.229112521388751134e+01
1.272899147085012039e+01,-1.104742713919284114e+01,6.617826026987991384e+00
1.272084590740746535e+01,-1.092032162809753970e+01,6.605615375785945709e+00
1.295964766173556093e+01,-1.039994690362544993e+01,7.139779679930979839e+00
1.311972191015150457e+01,-1.102696545306267062e+01,7.456651780950881658e+00
3.253930595755282873e+00,-1.018940824423000890e+01,1.038159502463028439e+01
3.227323919816552866e+00,-1.012622586472332387e+01,1.031856919199904965e+01
3.080050009891124319e+00,-1.063762635120995448e+01,9.912970536339029692e+00
3.167662650091231491e+00,-1.095846738818563360e+01,1.011310709996492108e+01
1.958013220592487613e+00,-4.875512829745166421e+00,-2.468703988487982670e+00
1.957482773432126066e+00,-4.242427308257066265e+00,-2.269281952959998350e+00
1.574553480461712773e+01,-1.575065114696084478e+01,2.331359851620833723e+01
7.849396349867301836e+00,-6.759223352370670845e+00,-1.050406144872756187e+00
7.860826215363978520e+00,-6.318018849748349375e+00,-9.584667363362395776e-01
8.041979189756393254e+00,-6.989947547661304661e+00,-8.233978758635700501e-01
8.169868790439934969e+00,-6.130640013273469968e+00,-4.982253389143220801e-01
8.101396719689136106e+00,-6.600254849988028916e+00,-6.739230439920600446e-01
8.274688771795451814e+00,-7.578916449709759640e+00,-6.025971406707668621e-01
-2.299970530464685581e-01,-5.466739697281550292e+00,1.393888573402056963e+00
-2.364294782362401648e-01,-5.782147309200778018e+00,1.402554759497325776e+00
-3.166503126536337476e-01,-6.620856502389548481e+00,1.230017721312946399e+00
-2.969498522369313775e-01,-6.214776989145759600e+00,1.248395502057141115e+00
5.428163863374102505e+00,-1.347258812732760447e+01,1.471790729189492808e+01
1.168198505838221912e+01,-1.052952752284445381e+01,5.066859678877628781e+00
6.277107781471586101e+00,-6.443971842188027210e+00,-2.797760214629779085e+00
4.047402436487530508e-01,-7.960692733828458323e+00,2.734588321817637002e+00
-2.877520293478612601e-01,-6.338582381093354812e+00,2.961786791161458154e-02
-2.039474652468395988e-01,-7.039346316215117305e+00,1.081431509787912582e+00
1.175846318444682126e-01,-7.670146208845417313e+00,2.420915137961858754e+00
5.138270621709661867e-02,-7.555693992292384031e+00,2.132189038982515328e+00
4.791887135234000894e-01,-8.122870284506994665e+00,3.420768500244861343e+00
1.608177910158514301e+00,-9.342310663899468182e+00,6.153400018152201945e+00
1.040575860915976314e+00,-8.658461453925095697e+00,4.550261126363574604e+00
1.020233754818667293e+00,-8.730755388316296717e+00,4.810421925822071287e+00
3.046930191847327940e+00,-1.079118616769488881e+01,9.086411033222240974e+00
2.834648617917903124e+00,-1.056846886981586309e+01,8.632885451912228447e+00
1.738387046318222495e+00,-9.524874482248847585e+00,6.608270243479258177e+00
2.216555728125165103e+00,-9.970103467457485991e+00,7.480954057439385352e+00
3.464539442874117192e+00,-1.124830166432426992e+01,1.006937245147370419e+01
3.582594769995512962e+00,-1.142644538025496992e+01,1.054601486899702856e+01
4.302649044802015155e+00,-1.215912809611951673e+01,1.207128540569540931e+01
3.954110690219659219e+00,-1.189101932819125196e+01,1.167066093361368573e+01
4.842834848361411204e+00,-1.289555750762873920e+01,1.399336606563300478e+01
5.076579829111032893e+00,-1.313422844660975919e+01,1.449002839247977548e+01
7.047073696583802338e+00,-1.459273708756811416e+01,1.741273667446081674e+01
5.974474114888591814e+00,-1.383734123899069957e+01,1.590730556092116110e+01
5.810138649497178953e+00,-1.368069266229410985e+01,1.544443704329139422e+01
8.570031728629817991e+00,-1.527593680174675050e+01,1.904522232870566256e+01
8.657484750045753685e+00,-1.531234921674295002e+01,1.920693865638409648e+01
7.682117427720516645e+00,-1.490011823980545991e+01,1.830840637872214316e+01
7.468552299854996690e+00,-1.479974624267585170e+01,1.777212188243205304e+01
1.159351738709048796e+01,-1.613358898186766055e+01,2.195146871779670761e+01
9.307232406013158155e+00,-1.558073870602502531e+01,2.014292683826327135e+01
1.044940463869386171e+01,-1.586236044216802554e+01,2.112019051539984460e+01
1.246067403451433719e+01,-1.619747728990034119e+01,2.244454832829416446e+01
1.220150366336791237e+01,-1.617893266572185240e+01,2.257488910935835946e+01
1.371513651975038073e+01,-1.618041899370773251e+01,2.288910347712627669e+01
1.407605800661863960e+01,-1.614224222350949844e+01,2.315414348547342627e+01
1.500727479159200506e+01,-1.607190595171779535e+01,2.325884246932442068e+01
1.702651571911135875e+01,-1.598396321171785672e+01,2.250679755995674469e+01
1.778409937908580218e+01,-1.607182344655432260e+01,2.131253260900160029e+01
1.830933903196549650e+01,-1.590328916253543667e+01,1.936957352567797841e+01
1.825541586354723478e+01,-1.597290918066912013e+01,2.013403585921106043e+01
1.769719782449361389e+01,-1.516504745033125801e+01,1.591493770143362241e+01
1.756069545249287245e+01,-1.525205878143942684e+01,1.610143554024618595e+01
1.812725039513859571e+01,-1.569933489932060411e+01,1.826855588748166426e+01
1.788296094739218844e+01,-1.522699861307196301e+01,1.631201533668676262e+01
1.740935159606751270e+01,-1.510323319764077610e+01,1.551949273183396549e+01
1.649519434633531034e+01,-1.425320529366968181e+01,1.321444330342447770e+01
1.696912742136665742e+01,-1.459389770936620323e+01,1.419351816794204346e+01
1.498816981322655906e+01,-1.327031135324326883e+01,1.105962755658721086e+01
1.567600219145611717e+01,-1.386597382725070915e+01,1.221707074740478838e+01
1.623025181422567798e+01,-1.412038866828434536e+01,1.279609776660038634e+01
1.522217356220000894e+01,-1.337590238160650635e+01,1.130264902629591717e+01
1.320825708231779672e+01,-1.195967930862644302e+01,8.201780285498777801e+00
1.260518696431744345e+01,-1.117726170773850569e+01,6.597755863771991081e+00
1.204686359804288642e+01,-1.078249440593947917e+01,5.692713631635307081e+00
1.236790384929673436e+01,-1.091902943500220502e+01,6.048082595704343589e+00
1.160754695752538623e+01,-1.030585063013188574e+01,4.699953719400863150e+00
1.100703694178298875e+01,-9.910189243500552081e+00,3.883350411431537808e+00
1.097821772732766199e+01,-9.660590667094410833e+00,3.417407430091440546e+00
1.153465998295433081e+01,-1.027138398567725019e+01,4.624691771391752582e+00
8.695983166448671753e+00,-8.091765805387616695e+00,2.252131776841341804e-01
9.532358379638225188e+00,-8.663571970791016597e+00,1.380768594821029538e+00
7.433744625499413949e+00,-7.363973308791131878e+00,-1.244227262745978280e+00
8.032790930182338585e+00,-7.610977395423655700e+00,-7.345427264501829256e-01
7.280431586777455166e+00,-7.255752429211862697e+00,-1.465774601587433779e+00
6.099840378892075421e+00,-6.279531749053049339e+00,-2.964845042885844606e+00
3.865016202777717513e+00,-5.363512561674006029e+00,-3.278660105869930064e+00
2.567221181385212603e+00,-5.241983711002745849e+00,-2.689733432398957902e+00
2.522907052502064040e+00,-5.270111737660673867e+00,-2.607937596288680382e+00
1.171908369944252293e+00,-5.310706989447091075e+00,-2.078112570803400061e+00
