-1.505776284331405002e+01,5.385658308867558475e+00,2.362949162919356638e+00
-1.530040035276345201e+01,5.133864738518946425e+00,2.035171380904944094e+00
-1.089072906285078091e+01,4.787663108914288479e+00,1.711116524317993282e+01
-1.315234516038172785e+01,7.811218424384959391e+00,1.754144493616081135e+01
-2.662130947248435575e+01,1.915357974896819693e-01,-9.500823736257412833e+00
-2.614140493657139785e+01,1.487251845164938580e-02,-9.174140809718249301e+00
-2.654914004470894895e+01,-4.214365418645102390e-01,-8.813983213009791484e+00
-2.752955614073188428e+01,9.964579526362145057e-01,-7.970972861142110233e+00
-1.039849614802146860e+01,5.115103101237749250e+00,1.746844843844805339e+01
-1.075915707453274095e+01,4.907798815175666185e+00,1.702829758589189169e+01
-2.644302505689147864e+01,1.855952026592997406e-01,-9.443097556688027083e+00
-2.651549727745813811e+01,1.333029574356926039e+00,-8.064666517486969610e+00
-1.576200921683949829e+01,8.840879737454547804e-01,1.509486277727342518e+01
-1.552199525460804175e+01,1.101977049642763440e+00,1.443662161787590748e+01
-1.596392381416716155e+01,8.086673446507313123e-01,1.455935934548500477e+01
-1.652880864959029950e+01,5.345636645570920331e-01,1.368671080010131114e+01
-1.602699457112035830e+01,8.574140263231129211e-01,1.373834157575029202e+01
-1.631610040263196382e+01,6.049595201339301731e-01,1.431357538186352407e+01
-1.434575695395209571e+01,1.589274496219255095e+00,1.712772520513514962e+01
-1.471354669297950757e+01,1.402065479243991941e+00,1.655289370721673237e+01
-1.447087593948247886e+01,1.536546498445982678e+00,1.676285474177587886e+01
-1.590028869650002896e+01,4.712896881688699580e+00,1.758274535449726272e+01
-1.571406777069071836e+01,4.779866390991937664e+00,1.698858653492179727e+01
-9.626737877881161864e+00,6.098814682911622320e+00,1.257520769059267884e+01
-9.114766949780683802e+00,6.594301612967782944e+00,1.261719825379173443e+01
-1.096302771544677057e+01,5.718893360654152325e+00,9.324796424614522294e+00
-1.038805881000140552e+01,6.129353117332676071e+00,9.798988820948196121e+00
-1.035234449219059627e+01,5.987467660749834941e+00,1.044413578830288714e+01
-1.025384038762349270e+01,6.123270139407225088e+00,1.029552561575193437e+01
-1.214367693171099383e+01,7.742914816272021383e+00,1.213754948548926293e+01
-1.196023282443722024e+01,8.051840041105814194e+00,1.179755738269002308e+01
-1.211663623334719730e+01,7.943258352858951099e+00,1.068710264677168453e+01
-1.196680234848236246e+01,8.052638555588115921e+00,1.150736165804866573e+01
-1.646090249949702766e+01,3.814580492974169346e+00,-2.839338893080102899e+00
-1.619056606467360382e+01,4.032075075822848298e+00,-2.738799063595855898e+00
-1.578475626099449691e+01,4.348734409731155992e+00,-2.560583923210782764e+00
-2.348550802981082697e+01,-2.384925104676459906e+00,1.391948766467477228e+00
-2.384883701254495136e+01,-2.428451695324784776e+00,3.631615913556123232e-01
-2.463454894922573146e+01,-2.808946510617457815e+00,4.100673661673237547e-01
-2.385260275136485575e+01,-2.450630620966427919e+00,4.874299058821573993e-01
-2.406740160196459755e+01,-2.616471847513077265e+00,8.494979270996632081e-01
-1.172683667523828355e+01,8.581903469776761995e+00,1.594628415589189174e+01
-1.166889881104354210e+01,8.629131454902916332e+00,1.592461068168695171e+01
-1.176155332259782149e+01,8.579131497599702172e+00,1.614291382743166636e+01
-1.216154944229502277e+01,8.392760916844503427e+00,1.668396638905574747e+01
-1.205816598602942236e+01,8.526670164606988678e+00,1.706581945591999272e+01
-1.275065228927891425e+01,8.128881698477613327e+00,1.763487038073859736e+01
-1.283745698458738183e+01,8.086444860006535507e+00,1.743956434524876187e+01
-1.383007156296477902e+01,6.862639865739508238e+00,1.808569416544231245e+01
-1.462055515124010441e+01,5.905232058037623410e+00,1.752394516084623888e+01
-1.424211472848057269e+01,6.342544377555411117e+00,1.794159293628925411e+01
-1.555781911243165894e+01,5.010164762195840282e+00,1.780195570513706826e+01
-1.485384889671990116e+01,5.664288854527580241e+00,1.748622450197836287e+01
-1.612389635405190802e+01,4.231963949678115178e+00,1.599256797647447037e+01
-1.598394255627471594e+01,4.449773637217290911e+00,1.639070055047574925e+01
-1.789954317402185424e+01,2.034114085822230411e+00,1.204418743198807462e+01
-1.792351797800959901e+01,2.199982077306022354e+00,1.246181252119378868e+01
-1.812905904129305057e+01,2.250436455254391621e+00,1.269760384778952655e+01
-1.772872209687735889e+01,2.462797054108087913e+00,1.302058362006727066e+01
-1.701392682243680810e+01,3.017259737121373409e+00,1.400130654720866907e+01
-1.726089091566555211e+01,3.019377600169178777e+00,1.430800957112051286e+01
-1.760487347541277359e+01,2.651003486985575197e+00,1.347328485086419469e+01
-1.769275463531760195e+01,2.724018589953506098e+00,1.381254998800894462e+01
-1.926851903693956558e+01,9.925127002759699391e-01,9.645006658715189474e+00
-1.949488103136146222e+01,9.154925972672822709e-01,9.706676101422893055e+00
-1.898447165840970641e+01,1.191804854271885983e+00,1.023356888931101061e+01
-1.956744451871070112e+01,1.040052491121664202e+00,1.027015188895824593e+01
-1.825628487722244131e+01,1.798328688288632016e+00,1.161359941455348554e+01
-1.869023625572761915e+01,1.901161770480912061e+00,1.201560436546805022e+01
-1.859229057344023417e+01,1.873865741051643052e+00,1.191538312100747632e+01
-1.882516657517609104e+01,1.415337104660883361e+00,1.086343891452261801e+01
-1.888130574930922378e+01,1.465841291450964867e+00,1.101849895102990473e+01
-2.045288622172275339e+01,9.138212884455365614e-02,7.116639260665353461e+00
-2.066130325271252133e+01,1.385611580162509071e-01,8.158715471323752411e+00
-2.031074133066181275e+01,2.252162588588031422e-01,7.584926950226282827e+00
-2.253314958119165112e+01,5.276980758915276182e-01,4.113187727769045843e+00
-2.198068028902721593e+01,4.534249002384618255e-01,4.307437069512873862e+00
-2.180612554539578696e+01,2.788894051502733840e-01,4.843681712522736937e+00
-2.206627780342303424e+01,4.093784794426589269e-01,4.467249404606898899e+00
-2.455974982398902995e+01,9.310814169147862973e-02,2.383607029319545934e+00
-2.349659292171340752e+01,5.680213911688654083e-01,3.262163499581583359e+00
-2.696745064677769932e+01,-9.424314103606159509e-01,-2.058775499411481746e+00
-2.651139735922648555e+01,-8.114763949636680795e-01,-1.597299536152530841e+00
-2.640097339926186137e+01,-9.148534777214281100e-01,-1.102068970448057073e+00
-2.648866468529502072e+01,-1.062064369282980980e+00,-8.344366193498968798e-01
-2.523103143226121858e+01,-5.815132700377128039e-01,3.190904769746403247e-01
-2.563593071718503325e+01,-6.800599900051924607e-01,-3.491099320667956363e-01
-2.624111952175821472e+01,-1.051274959066867964e+00,-3.951881201629836582e-01
-2.790803357314325694e+01,-7.159088302424194694e-01,-4.908406194980042159e+00
-2.755620557130768589e+01,-6.012082911626488446e-01,-4.552373680617460394e+00
-2.795398679644960183e+01,-8.964576890277797805e-01,-4.412106094851466764e+00
-2.791423443199906984e+01,-1.050645701096248441e+00,-3.779965453444276591e+00
-2.691130014418819982e+01,-6.617215873966556527e-01,-2.843443586623389585e+00
-2.748284786325472950e+01,-1.115402206820563791e+00,-2.587058205111978815e+00
-2.724773948355457520e+01,-1.099804396910884385e+00,-2.136689709784369562e+00
-2.764356453260250390e+01,-9.319040568729279883e-01,-3.574517537197497319e+00
-2.743196407791341329e+01,-8.622745341868941482e-01,-3.328248700584042652e+00
-2.775104488878519859e+01,-6.997275430729121837e-02,-6.512841036304825693e+00
-2.838294765286529397e+01,-2.388086951154594073e-01,-6.544578659250348096e+00
-2.775359822059234816e+01,-2.492764533447564823e-01,-6.104602435174788511e+00
-2.835543997966022545e+01,-3.504726771693112974e-01,-6.346204359877928525e+00
-2.772674785950760423e+01,-4.154394675966075479e-01,-5.588244624086454948e+00
-2.763362751479035495e+01,-4.952638995464446192e-01,-5.130125332630029789e+00
-2.830592304477519860e+01,-6.247585954238952244e-01,-5.773426503582495428e+00
-2.757052156527456788e+01,3.533946191223834576e-01,-7.110155730796334339e+00
-2.763507937339715426e+01,3.612751040251644952e-01,-7.139044256023568735e+00
-2.756739707584902987e+01,2.796152466729046049e-02,-6.615449843060048352e+00
-2.742337347073171827e+01,7.303601823473946375e-01,-7.587459778449407111e+00
-2.688666875317524330e+01,1.140935971501956026e+00,-7.961994494687001378e+00
-2.724828867834686008e+01,1.285965046474468076e+00,-8.233197699422268201e+00
-2.645885719607129616e+01,1.675542277941011626e+00,-8.407210754217480542e+00
-2.595752137922617919e+01,2.216293264678983022e+00,-8.762286339025008530e+00
-2.475559489136247038e+01,2.891768982958762724e+00,-8.945879804731617924e+00
-2.538222658634815687e+01,2.487036095969058280e+00,-8.788810009792731748e+00
-2.517716711706742672e+01,2.477066301307101259e+00,-8.686714441504944872e+00
-2.526685565901880182e+01,2.469709917226903695e+00,-8.717775421304596151e+00
-2.360129894907649373e+01,3.249246190351629426e+00,-8.161091174333478193e+00
-2.369399144386486711e+01,3.325185696271397706e+00,-8.518031600980426887e+00
-2.376824181142620773e+01,3.462716678628754874e+00,-8.917118568311346749e+00
-2.455363432227844811e+01,2.899702399397618091e+00,-8.826121119565232931e+00
-2.412412439034330447e+01,3.012708064318759149e+00,-8.555220586980984976e+00
-2.424876136495495871e+01,3.132288179991411514e+00,-8.894611876556778540e+00
-2.126628200055174744e+01,4.373166394810238167e+00,-6.408611889822882546e+00
-2.130736540761267150e+01,4.497947735438801331e+00,-6.849050039637875287e+00
-2.194368276500319936e+01,4.110763250156638904e+00,-7.045537936152635794e+00
-2.191242315370914895e+01,4.285146757541190787e+00,-7.493577102436551840e+00
-2.280731396979900438e+01,3.672359711076291333e+00,-7.636182711741620111e+00
-2.276560077316911190e+01,3.830848135200235483e+00,-8.006165257415446490e+00
-1.930876484711870944e+01,4.932426849787558076e+00,-4.133926284221809411e+00
-1.942971265709996231e+01,5.034482099229463437e+00,-4.745051782063454127e+00
-1.976905909967722152e+01,4.855091290529002457e+00,-4.936444014395403812e+00
-1.967331071358216832e+01,5.088911615877277583e+00,-5.399361029355999264e+00
-2.080847090121032394e+01,4.565628565075886769e+00,-6.085073252571719493e+00
-2.095146939281658049e+01,4.659410816833948310e+00,-6.598287935025577866e+00
-2.048125457971738683e+01,4.563626308982936308e+00,-5.487177209385828647e+00
-2.008340538271487929e+01,4.912534241944473301e+00,-5.695858109728460406e+00
-1.852514683491022396e+01,5.642582187067287869e+00,-2.676321533648967410e+00
-1.885708970233066495e+01,5.192636641287040611e+00,-3.041159921180627279e+00
-1.911438292683293838e+01,5.031483850065783692e+00,-3.783773418751998463e+00
-1.920779518610980929e+01,4.996620809544781494e+00,-4.030348960191743046e+00
-1.881181621519584724e+01,5.332615992858208642e+00,-3.603206509175901573e+00
-1.641268493719860544e+01,5.778304343377638652e+00,4.647059504204928970e-01
-1.700467365121169294e+01,5.504351427515807416e+00,2.633033256759009788e-02
-1.684261015218014990e+01,6.016928304138966510e+00,-5.255841635654512345e-02
-1.466325460601531283e+01,5.390955141306773335e+00,3.513788669657382790e+00
-1.495586030034275815e+01,4.954815079831871749e+00,2.773572987080353602e+00
-1.479584791895883988e+01,5.321812114609731914e+00,3.068429400221255765e+00
-1.330124181459920685e+01,6.331210565843049309e+00,7.502377538867325946e+00
-1.331008852952833443e+01,6.601721967659067047e+00,7.408823415503031917e+00
-1.353051452887229189e+01,6.065361117779043632e+00,6.819047953291851982e+00
-1.354425482624312060e+01,6.673917149671965809e+00,6.699070094339643511e+00
-1.390491837573188327e+01,6.292226481051110376e+00,5.661725031139860143e+00
-1.402934128245299128e+01,5.966622253857724267e+00,5.363741724286630763e+00
-1.380329684859114536e+01,5.858061888673710804e+00,6.035020720623299084e+00
-1.389847421616578771e+01,6.391125664588328981e+00,5.663193972387833064e+00
-1.244268561640802417e+01,7.258242925148520541e+00,1.042263213901322771e+01
-1.225791955075094819e+01,7.827526356158113430e+00,1.023738135433036334e+01
-1.242914986341192929e+01,7.479295503574612702e+00,1.003850368112674474e+01
-1.255828925590026657e+01,7.283805495860852908e+00,9.722956739613575650e+00
-1.293304882617293039e+01,6.957694486761288211e+00,8.540294419559273820e+00
-1.305283561750417931e+01,6.926146260677382038e+00,8.145407711792557848e+00
-1.276452252873987447e+01,6.887397283689503880e+00,9.314284639160463897e+00
-1.268429839814168503e+01,7.333203735844436189e+00,9.143597039455935160e+00
-1.188627852778694916e+01,8.282069961199196584e+00,1.325683385295886474e+01
-1.182483449976686352e+01,8.364614688057775638e+00,1.298001125769328468e+01
-1.178947707867901684e+01,8.406949154426778037e+00,1.268126986281433588e+01
-1.171062516888367355e+01,8.549082432332861359e+00,1.522886444238194770e+01
-1.180893851767896052e+01,8.446548413799579436e+00,1.490226610648187844e+01
-2.313097184239446591e+01,6.350691520659172973e-01,3.252913831948100132e+00
-2.333710456414478784e+01,5.793839049009257280e-01,3.518659784621228859e+00
-2.323804142334761025e+01,5.730522948211893564e-01,3.690571455620143659e+00
-1.557589601233497056e+01,5.042036971975993431e+00,1.668932392449339108e+00
-1.563524041012005128e+01,5.373647911329073601e+00,1.473178085893324329e+00
-1.593119646808260370e+01,5.295979378521985304e+00,1.156892634821520272e+00
-2.038092719581213785e+01,7.683646903533669636e-02,6.770874694564235519e+00
-2.088982482254801454e+01,-5.649687875890918587e-02,7.081788912007276338e+00
-1.421508954230286825e+01,5.653896498733587350e+00,4.889555683094670258e+00
-1.427355308295040892e+01,5.698441165816948484e+00,4.690406098327174256e+00
-1.451351226334802469e+01,5.891838634623565163e+00,3.804392231414708725e+00
-1.443105809847436127e+01,5.541313128937622956e+00,4.268339075391546444e+00
-1.684657435874033382e+01,3.302892711380656099e+00,1.464084697857836836e+01
-1.661354479262910644e+01,3.714620664355680724e+00,1.547322948108091900e+01
-1.674361914458735967e+01,3.698553074385990236e+00,1.565142406835746769e+01
-1.133995669700224695e+01,8.957326610591156424e+00,1.411210457155790010e+01
-1.161573203281989564e+01,8.643493763037488620e+00,1.385185908736508686e+01
-1.169075756283631229e+01,8.555423338019139123e+00,1.353823247406264407e+01
-1.175767777073810905e+01,8.462442640258389659e+00,1.344431826763814719e+01
-1.153805485708721079e+01,8.753173563276952507e+00,1.360984926811551610e+01
-1.781224741393188538e+01,5.817482012218405885e+00,-1.093472403821256655e+00
-1.797610172070231727e+01,5.824506405758946848e+00,-1.373485244238476177e+00
-1.847736910316196912e+01,5.589388565301184109e+00,-2.234427778237102480e+00
-1.816569848981716007e+01,6.096586335087715192e+00,-2.219808110734057038e+00
-1.819955806942233423e+01,5.984284381147918275e+00,-2.112151928974997261e+00
-2.504471662300193913e+01,-4.880754903661843058e-01,8.496119968916180376e-01
-2.479072136538320592e+01,-2.780458878698029990e-01,9.872881263340729241e-01
-2.438132930637811313e+01,1.329919504805676667e-01,1.795502137348527150e+00
-2.487372658389423208e+01,-1.831241826020073016e-01,2.098298189936766978e+00
-2.506983669498060152e+01,-4.590288130088872598e-01,1.551195306045892952e+00
-1.540073311695976699e+01,9.923447017343624665e+00,1.012292567977579338e+01
-1.590816284980349415e+01,9.732217822925678163e+00,1.001531578005698364e+01
-1.607518960951519560e+01,9.763768874394481045e+00,9.623655711768142496e+00
-1.562486014335627971e+01,9.831167834820718099e+00,1.036054492925023141e+01
-1.922139796029074432e+01,6.176479256033575282e+00,1.431225050998461867e+01
-2.053400294182919694e+01,5.711246598944360819e+00,1.269042987094518438e+01
-1.599388064769532392e+01,9.832502389651756047e+00,9.000978074857364675e+00
-1.694645434217730440e+01,9.881244918118117226e+00,7.823233755958897362e+00
-1.772660700379911702e+01,1.001059611950411110e+01,7.153136360126358895e+00
-1.684575462377879518e+01,9.754201092456483480e+00,8.588363205828464686e+00
-1.720978309878149304e+01,9.819193604455067614e+00,8.111355459336984097e+00
-1.785259806787835402e+01,9.927738548763739956e+00,7.391254720297125047e+00
-1.818286259065049748e+01,1.005657311158511469e+01,6.965922013857210437e+00
-2.101903371785043717e+01,5.703722290795970373e+00,1.206965700300321487e+01
-2.127282129895998963e+01,5.681788302141216995e+00,1.183558856429244699e+01
-2.257995206180707015e+01,5.418428307280704459e+00,1.098262509415924981e+01
-1.957850327594983852e+01,1.051694005290074507e+01,4.998265096117495254e+00
-1.930110527746361626e+01,1.032068683906712891e+01,4.850173604840389174e+00
-1.906626783529013380e+01,1.036545620961275205e+01,5.393439382671158633e+00
-2.427466845908904958e+01,5.737083930835158441e+00,9.443806171075129541e+00
-2.474581829100293362e+01,6.010014127949980356e+00,8.615378295534450004e+00
-2.072522351698158971e+01,9.355601316710716375e+00,1.597736275721364674e+00
-2.072677463966951450e+01,9.333123866317285078e+00,1.548650960141380484e+00
-2.070696506464582853e+01,9.319342160656931995e+00,1.522253137327694184e+00
-2.127082635306320668e+01,9.687260848810696601e+00,2.885736179041613170e+00
-2.158172762433393999e+01,9.335966253085970834e+00,2.518355582386932578e+00
-2.101624203932008328e+01,9.565462964310638583e+00,2.199395049923353440e+00
-2.482531062453936244e+01,5.629518439805747398e+00,4.806437892355661212e+00
-2.515452542034191907e+01,5.228838867299753446e+00,5.195128214013037038e+00
-2.104996733346535009e+01,8.632236108319602863e+00,6.253730997957340776e-03
-2.142195573594189284e+01,8.246913846641815482e+00,-4.885489577275778927e-01
-2.135706302370217458e+01,8.202098666227289669e+00,-7.563027448470354130e-01
-2.128632032189814183e+01,8.223933980064215277e+00,-8.590257705017938505e-01
-2.113506534839677897e+01,8.129496644141159578e+00,-1.516390767889570057e+00
-2.110429812128435501e+01,8.375779226111461639e+00,-7.020222608943873510e-01
-2.167171223267233415e+01,8.074904238693447311e+00,-4.603602621243494397e-01
-2.178485453089199453e+01,8.042345331754731319e+00,-3.169723861276896315e-01
-2.233599473759363008e+01,7.811474926882231884e+00,9.215004027578199697e-02
-2.184163818076583041e+01,7.763066871214965303e+00,-1.066451928897543588e+00
-2.217805847601092140e+01,7.524522214660190222e+00,-1.076106597550310795e+00
-2.169432128277765770e+01,8.001954790232312931e+00,-6.386340573068363113e-01
-2.559385743529424673e+01,4.465585561785221813e+00,2.983752158271164134e+00
-2.582531274681543465e+01,3.917181895433950345e+00,3.354802729542220696e+00
-2.595062521869993333e+01,3.815816521193274191e+00,2.809339156746760491e+00
-1.218841724151522499e+01,8.557164820181885290e+00,1.716606185967454223e+01
-1.264383328609542900e+01,8.574095572005745680e+00,1.752225986129929680e+01
-1.243227404600739661e+01,8.638084896091397624e+00,1.729261137023161155e+01
-1.202674440774865694e+01,8.711383450476612111e+00,1.680298507005739594e+01
-1.307187690608354025e+01,7.671727638871864485e+00,1.824500274834616675e+01
-1.332329582407259672e+01,7.923168046162400557e+00,1.815311525369870083e+01
-1.382390581433987364e+01,6.671924412271716065e+00,1.843001298262522170e+01
-1.506064994030802318e+01,6.166558944176537160e+00,1.818521270168477955e+01
-1.305759383881283142e+01,9.632142673664576549e+00,1.675052297041155214e+01
-1.319058647809324825e+01,9.350118644328327733e+00,1.714520719866850840e+01
-1.330457367734267571e+01,9.222584941799453873e+00,1.734679020123564186e+01
-1.355412711761569966e+01,9.418376835612908948e+00,1.734468207002444728e+01
-1.352037055973327639e+01,9.592566705648472691e+00,1.713979505695751016e+01
-1.331189847509645041e+01,9.320804019754529435e+00,1.726019536915910635e+01
-1.337448378459741605e+01,8.779176641731522679e+00,1.769296369401914859e+01
-1.433626719797507754e+01,8.295600966591470282e+00,1.816990126202026801e+01
-1.434427978904285439e+01,8.233590795414864161e+00,1.818480544033527480e+01
-1.454628575395745749e+01,7.719421869348442655e+00,1.827251219553946981e+01
-1.475339594051244951e+01,7.533620587745719632e+00,1.826757233608880426e+01
-1.632904452897480141e+01,7.996308957351866198e+00,1.817116843133063142e+01
-1.506178466535849303e+01,8.216319698637324365e+00,1.816408076568587404e+01
-1.542279864917834153e+01,5.108083172445580189e+00,1.793241644306152693e+01
-1.602564413545630018e+01,5.365437129223753487e+00,1.775322950592036264e+01
-1.575656091924725999e+01,5.644266434209362693e+00,1.795215512770892019e+01
-1.750360167876930717e+01,2.783611337638508765e+00,1.400629180584011557e+01
-1.847941671043480127e+01,2.013722479362377360e+00,1.223117882331434458e+01
-1.784228743581303434e+01,2.479218238948760256e+00,1.335585293914763305e+01
-1.843676463196281290e+01,2.185794488530418356e+00,1.234946204153869509e+01
-1.923752210394067674e+01,1.666489933062893503e+00,1.114806673676016402e+01
-1.986482320195012719e+01,8.992746622754097530e-01,9.892453885239337552e+00
-2.020929550502409455e+01,1.284622805746450602e+00,9.886997144862299081e+00
-1.955960858795578616e+01,9.723087073950009707e-01,1.026872530731813704e+01
-1.956341721192045924e+01,1.025478339869491107e+00,1.031008615613889745e+01
-1.964635839043795684e+01,1.445044732051950165e+00,1.057417168086446324e+01
-2.041267165366305036e+01,1.875975321788769801e+00,1.017407724392187163e+01
-2.013484693858217156e+01,1.835945339115727659e+00,1.040984088769144478e+01
-1.968883700879363374e+01,1.730825995717091281e+00,1.075044127881007583e+01
-1.914087329880013755e+01,1.960460031497996969e+00,1.143549535312721055e+01
-1.939434820215458188e+01,2.078518554810330432e+00,1.124007857759031737e+01
-1.918768381736489204e+01,1.942148048602376775e+00,1.137620420308758895e+01
-2.097251781800358117e+01,2.549566106785507991e-01,7.556863517673059860e+00
-2.134362117716823803e+01,9.590465753500589940e-01,7.977361438048927944e+00
-2.155815706085433803e+01,1.157034753973313901e+00,7.884673548187134173e+00
-2.252371999778669931e+01,2.481801139270813028e+00,8.092982462948061340e+00
-2.190383028007207500e+01,1.622936832649413574e+00,7.961247910092435376e+00
-2.177880799252323030e+01,1.535148806573144897e+00,8.060412009598159955e+00
-2.219176590653940195e+01,2.295815914450281880e+00,8.424111822198097954e+00
-2.179489640588702670e+01,1.708818961611988652e+00,8.288868304796164210e+00
-2.185052143388435297e+01,1.871965071823940452e+00,8.428574231471623435e+00
-2.243639558185351035e+01,7.569599693926321038e-01,5.263758332782973781e+00
-2.255153992445416833e+01,9.875189996530306935e-01,5.378165261378184070e+00
-2.272264537111418647e+01,1.059423145578683112e+00,5.177194988209409487e+00
-2.271060138967458997e+01,4.491169813051861803e-01,4.444567508979170967e+00
-2.255694738637745189e+01,3.610450241451910181e-01,4.564602429476584788e+00
-2.362901994128506544e+01,2.027968606603881785e+00,4.847740053750452915e+00
-2.336036535468238640e+01,1.504748590317897872e+00,4.682898435324720943e+00
-2.327333969514107537e+01,1.513349403434120388e+00,4.832006355117509422e+00
-2.318657801240031802e+01,1.953432332712844666e+00,5.572576361904030051e+00
-2.315793025540613215e+01,1.723817607073710345e+00,5.305203053747471031e+00
-2.417945762265484433e+01,7.639663152950035840e-01,3.127326191890879237e+00
-2.463956537984812556e+01,4.571745263978632678e-01,2.487213424654819427e+00
-2.431705383724359493e+01,2.725571785141107650e-01,2.703986903587272561e+00
-2.442701827434564166e+01,4.992361194231267341e-01,2.730124137638091142e+00
-2.476714774165267841e+01,6.282178069026898015e-01,2.443514965070531897e+00
-2.462248038917851289e+01,6.210781153957765088e-01,2.598138834341566117e+00
-2.428530703413866121e+01,8.883337746823358749e-01,3.100216575921643791e+00
-1.705408138057942935e+01,7.211002724764223437e+00,1.802458467204962744e+01
-1.679564976433861645e+01,7.664447774321621054e+00,1.816747885003041674e+01
-1.713007520334513956e+01,4.860032500509733566e+00,1.594948994723001157e+01
-1.785463666185134457e+01,6.192269882727507557e+00,1.637264937620625460e+01
-1.782769915837042518e+01,6.566817245685292015e+00,1.677304809291724652e+01
-1.758420080613614545e+01,6.139084323289757172e+00,1.665251167368052876e+01
-1.792034665222793421e+01,6.924352735288478833e+00,1.701035107714815808e+01
-1.741791688506575397e+01,5.975055010543909972e+00,1.669073737624576736e+01
-1.678578513425755503e+01,5.181759006665980216e+00,1.663735050484789824e+01
-1.692338839263879890e+01,5.281684912849084590e+00,1.658726048595431735e+01
-1.698713879992837406e+01,5.486129818927261148e+00,1.671310423825302394e+01
-1.946603790652305221e+01,3.841197993100292862e+00,1.246358698059279035e+01
-1.929531431689299126e+01,4.063506169594165662e+00,1.282664314417930385e+01
-1.874082065822550547e+01,4.301212105906189187e+00,1.361822840446298954e+01
-2.017909578246915103e+01,5.153548531840807634e+00,1.287638245938909698e+01
-1.988500538807619122e+01,5.366198938767299254e+00,1.334886993586441051e+01
-1.953281475782664245e+01,4.586468153850749019e+00,1.304330292494183219e+01
-1.981677584362545019e+01,4.998053072170970168e+00,1.310704956803073884e+01
-1.940031745443542377e+01,4.752174883657711568e+00,1.332620129682155152e+01
-1.891864282008751985e+01,5.743507672639528217e+00,1.476079864191479096e+01
-1.860205633594484098e+01,5.202298328421714579e+00,1.462266944439679328e+01
-1.873644934240270032e+01,5.222208771423457740e+00,1.448644175611959461e+01
-1.912317247236689610e+01,5.140523365813667311e+00,1.397400039218863022e+01
-1.821481972739904975e+01,4.317948588633528040e+00,1.421469351222094879e+01
-1.846934212157601607e+01,3.984278291983915921e+00,1.360472602142801435e+01
-1.838951544214765832e+01,4.799849420416448353e+00,1.448469384797666315e+01
-1.834833220062475689e+01,4.731974656853976668e+00,1.446631408472160452e+01
-1.872070654632910447e+01,4.526661174677381716e+00,1.385218162517726448e+01
-2.119698543812007330e+01,4.055311980836841634e+00,1.113735910335996060e+01
-2.225897629482418338e+01,4.569341975499566999e+00,1.065293768246778150e+01
-2.221280854799838522e+01,4.676986918845837060e+00,1.077214466127573189e+01
-2.171681405555517941e+01,4.763870747792676497e+00,1.124040433785270565e+01
-2.199974414030311820e+01,4.409553760797982669e+00,1.074742971345709464e+01
-2.058055812306739085e+01,4.962167478338784576e+00,1.234814720120052378e+01
-2.037904111277766006e+01,4.693096456687792184e+00,1.231981422459070963e+01
-2.009879609853065574e+01,3.829408187150075804e+00,1.188246296490322784e+01
-2.076080145336452532e+01,3.696815529587863303e+00,1.120276465684703915e+01
-1.987559202285959259e+01,4.079716391471483128e+00,1.228102089577154388e+01
-2.048269683219390913e+01,4.238277350667477350e+00,1.187319300627954100e+01
-2.376961004365236363e+01,4.439661822966360027e+00,8.724832877431893507e+00
-2.422028032501102501e+01,5.030619982589896289e+00,8.700391638177441322e+00
-2.464447409746417605e+01,4.009885357639570991e+00,5.401666932257077391e+00
-2.472638020536240333e+01,4.087087698926028523e+00,5.323680344628185068e+00
-2.570870743894106880e+01,2.331629224294790248e+00,2.508841920266871917e+00
-2.600189533472764225e+01,2.572509192624132357e+00,2.463228619460543278e+00
-2.553756528750412969e+01,3.440926632565811882e+00,3.616612018574397958e+00
-2.554077510932052775e+01,2.930796888826824542e+00,3.197018769008623806e+00
-2.553305049531516602e+01,2.746670166261038215e+00,3.042377659475922869e+00
-2.538193019611181711e+01,2.742351349160666807e+00,3.187842546880051309e+00
-2.547820094831067195e+01,2.482917149743203655e+00,2.854099638851972820e+00
-1.886839169000525018e+01,5.929199184434430059e+00,1.498706469434732647e+01
-1.938372811118216532e+01,5.814763244249613550e+00,1.429172176988830145e+01
-1.955690847593390913e+01,5.887576561204049597e+00,1.415129733713581395e+01
-2.258136713140856955e+01,4.962287498871116753e+00,1.067770332424512425e+01
-2.230402755532605852e+01,5.139221748368409060e+00,1.103506116900053513e+01
-2.101353921076022147e+01,5.566019344638974076e+00,1.235478159102630968e+01
-2.490046908613064858e+01,4.647435360835716622e+00,5.628851685447301634e+00
-2.596450798485265210e+01,3.572364072964711923e+00,3.103759860014609018e+00
-2.594740829470261190e+01,3.430715865874735648e+00,3.128831111576195312e+00
-1.880017618649138811e+01,5.417125517294682169e+00,-4.003762320948622389e+00
-1.857844241709121036e+01,5.464054733454262625e+00,-3.698465674875366815e+00
-1.900399411464874788e+01,5.324897224969036280e+00,-4.382874491012074714e+00
-1.904691611326776268e+01,5.478542421259366080e+00,-4.181247634453651330e+00
-1.848670328298977950e+01,5.610988570749588789e+00,-3.359594653377959261e+00
-1.950133176074455221e+01,5.623573821555704733e+00,-4.476979291750096124e+00
-1.665943924901990769e+01,5.785050951428448940e+00,1.359471721601517302e-01
-1.668782912700687149e+01,5.962218145816510884e+00,4.224083325409520029e-01
-1.739342756665555356e+01,6.639394352353824580e+00,4.072079483988622073e-01
-1.656281225273701452e+01,6.041918169585857257e+00,7.993044104074762402e-01
-1.702053629124098322e+01,6.594332913628696780e+00,9.717294899426640598e-01
-1.688562173400756450e+01,6.283898092932567181e+00,6.549743399567162783e-01
-1.781280513362029438e+01,7.468438580709902297e+00,1.196041709032718892e+00
-1.721677150878936402e+01,6.862817284535744911e+00,1.106969910157135306e+00
-1.771991658212703413e+01,6.998683017301475573e+00,5.113844024044240655e-01
-1.489436931905415662e+01,5.565305833006116032e+00,2.931490061493927435e+00
-1.513657257306889292e+01,5.904364607181640245e+00,3.075826702229899290e+00
-1.502093357202986112e+01,5.895629665616970883e+00,3.257008126110897628e+00
-1.543826795301117372e+01,6.666340465028424589e+00,3.830296502503457212e+00
-1.530129711461235509e+01,6.631947600779954044e+00,4.006902852211220001e+00
-1.564534632651156443e+01,6.805577054829846873e+00,3.708423325230219447e+00
-1.635033136610619309e+01,7.788655128258108462e+00,4.230542027687787865e+00
-1.592782135628954165e+01,7.226787777574339877e+00,3.948970885094511551e+00
-1.660786373281509753e+01,7.741599422930159236e+00,3.665986740597102056e+00
-1.670229292770752849e+01,7.789729658384786148e+00,3.583544237873394600e+00
-1.369775567081583389e+01,6.425750344206390352e+00,6.249386237968195701e+00
-1.467316907593592035e+01,6.838935593643753030e+00,5.434964912884638011e+00
-1.421054371259688409e+01,6.794147501786092391e+00,6.111543124514886571e+00
-1.311376775068595890e+01,6.905372302756846992e+00,7.905835105756189307e+00
-1.351593877128301813e+01,6.918989861065957037e+00,7.423481292543876897e+00
-1.366909151701018388e+01,6.768898581326443953e+00,6.904413555712297423e+00
-1.412668108193566319e+01,7.145861299117902909e+00,7.014020858174543349e+00
-1.416331962901844932e+01,7.042317311923205203e+00,6.690033322870461596e+00
-1.144631275168215545e+01,8.813319119162933646e+00,1.561373350014830486e+01
-1.153093574241077057e+01,8.849804122728032851e+00,1.573519472928619223e+01
-1.140928472710824693e+01,8.847285380571559443e+00,1.539148801144538226e+01
-1.171980875555900781e+01,9.015801701065313978e+00,1.577243304653687161e+01
-1.172240620728859994e+01,9.127266518864399103e+00,1.547432711026255348e+01
-1.155231453790618978e+01,9.097563969024697883e+00,1.481241178011810966e+01
-2.069006388404738317e+01,6.523341533677388782e+00,-4.432856749499769933e+00
-2.008128846480071417e+01,6.750820401686288719e+00,-2.988774738406736020e+00
-2.027395356926106018e+01,6.880032596455134986e+00,-3.134228536297614554e+00
-2.046988288196728689e+01,7.073474612629936153e+00,-3.129057845026403939e+00
-2.090352184174571093e+01,6.741762510751764026e+00,-4.352915724342645731e+00
-2.079439744427725856e+01,6.784250414218511160e+00,-4.120197849322387640e+00
-1.913447319142177250e+01,8.914127953713940400e+00,1.825534575998314590e+00
-1.934524324494778114e+01,9.030754220515044395e+00,1.801124672249009073e+00
-1.757797335066426214e+01,9.178798059759069261e+00,4.873152404269577964e+00
-1.802066450709214251e+01,9.534480636190156844e+00,4.971688863893987786e+00
-1.842474289608483673e+01,9.645853539748495464e+00,4.526495360408708812e+00
-1.816290090110295807e+01,9.488798710713602702e+00,4.516995700619148124e+00
-1.491501107822754690e+01,8.366832366825839529e+00,8.002889309873157941e+00
-1.513708574034755472e+01,8.534023137928455682e+00,7.885795419319101995e+00
-1.495300964327231519e+01,8.807104132047276934e+00,8.563495042051675554e+00
-1.537227603035999479e+01,8.883612238778891168e+00,8.028381846350740147e+00
-1.527923089183902938e+01,8.455995506174540211e+00,7.555733296663227350e+00
-1.557122727954001284e+01,8.783954609734612617e+00,7.568650026643378936e+00
-1.564733962316842941e+01,8.793142669548707602e+00,7.463928909240663323e+00
-1.536454726086503442e+01,9.272886797850187435e+00,8.642721723385390575e+00
-1.549463681419332595e+01,9.452850030400151482e+00,8.736642773452370392e+00
-1.629549749618196230e+01,9.427863311154661474e+00,7.512509127971257250e+00
-1.523700436538630498e+01,9.157244287972568841e+00,8.654162675864444765e+00
-1.560146187010014351e+01,9.192856532387018831e+00,8.155546188126232110e+00
-1.588039200303964904e+01,9.206609629029697928e+00,7.755803997506847125e+00
-1.696281464210117562e+01,9.419610510557603789e+00,6.494173418291602218e+00
-1.651346173536271777e+01,9.120674644345044157e+00,6.640142926813465962e+00
-1.654809672725930270e+01,9.243586029828115613e+00,6.809113213236243745e+00
-1.566008239681482905e+01,8.615642793733835347e+00,7.184504932474962580e+00
-1.641371971879305747e+01,8.907147042212338661e+00,6.425701368398822666e+00
-1.630481531822989893e+01,8.963954522435287231e+00,6.704820931453260968e+00
-1.327481754498254851e+01,8.549458304921556007e+00,1.085096885597910088e+01
-1.333588516414868153e+01,8.341140195968810289e+00,1.044486519162422766e+01
-1.378657601231173224e+01,8.728579130443661072e+00,1.030203178241924533e+01
-1.386010819935957983e+01,8.967327938146787858e+00,1.055326215599183470e+01
-1.406607669601559429e+01,9.606915057456783202e+00,1.128966675624610971e+01
-1.411675559837705940e+01,9.620460627824195754e+00,1.122903565362033085e+01
-1.396248776116778778e+01,9.409706011372708900e+00,1.111710313864843336e+01
-1.399078848493596361e+01,9.147646156823137531e+00,1.063440222999733464e+01
-1.451331648378721262e+01,8.924886753274570594e+00,9.432790664903592415e+00
-1.441537037311181813e+01,9.093570468718461086e+00,9.858204569812256679e+00
-1.445627927247232059e+01,8.459560709945865398e+00,8.844973129091247444e+00
-1.474321558672682464e+01,8.722009859553180533e+00,8.768814612195999558e+00
-1.348229398771404419e+01,1.064710870141014354e+01,1.401822121769232687e+01
-1.305416582079691246e+01,1.011575031732825458e+01,1.382861101697444006e+01
-1.325496286974484583e+01,1.016591009959403991e+01,1.358091296126811720e+01
-1.321081966147116304e+01,9.739437168396820610e+00,1.293627218074195362e+01
-1.297073316660970121e+01,9.510050383348945147e+00,1.294388515931121830e+01
-1.261714759159485233e+01,1.014286598328400224e+01,1.516705557748890243e+01
-1.276262766423783823e+01,1.030830832922897322e+01,1.510598510333300482e+01
-1.275734190167682947e+01,1.027521197743233650e+01,1.530915365930965244e+01
-1.273336355765659889e+01,1.017935324323626567e+01,1.552765630070371294e+01
-2.064322673350987714e+01,7.647876554916370750e+00,-2.398340901999159058e+00
-2.064780008219775453e+01,7.855229842828110876e+00,-2.026781872095786419e+00
-2.076172767914892603e+01,7.918810630829163699e+00,-2.039379550284408538e+00
-2.078716903099810054e+01,7.636443489702116949e+00,-2.607721695621397551e+00
-2.123636231716325540e+01,7.604172897357432959e+00,-3.070411185636614526e+00
-2.002662943608920898e+01,9.465073882392212923e+00,2.130478023550137490e+00
-1.683731162543552884e+01,9.717359106234216171e+00,7.296926535135774827e+00
-1.554061340275968917e+01,9.535168459860814849e+00,8.813370845050304325e+00
-1.564682584771585994e+01,9.678618216535339158e+00,8.921799108572248116e+00
-1.609273925882420286e+01,9.588053303345274614e+00,8.102711305281593113e+00
-1.611210294315270275e+01,9.826010757338497825e+00,8.759528168309786977e+00
-1.678303723586207497e+01,9.850760341944614140e+00,7.854475362603951183e+00
-1.663461901272168930e+01,9.818143795588909484e+00,7.905672110996603053e+00
-1.637336678886527608e+01,9.774080075335998430e+00,8.124776565815210461e+00
-1.755727212544201876e+01,9.872886006594265851e+00,6.622407319245167123e+00
-1.516643676265845997e+01,9.770463781988235397e+00,9.825286515048480496e+00
-1.438704430420430391e+01,9.819030164565395680e+00,1.113207867081724523e+01
-1.442780629358890820e+01,9.984873849286739045e+00,1.137513978903547240e+01
-2.079175116005041346e+01,9.144928131091665691e+00,1.170827026598327159e+00
-2.124382354698794728e+01,8.629634685930639648e+00,2.697839168768734197e-01
-2.126951148039091777e+01,8.590694314808679621e+00,1.731643429743385809e-01
-2.077559100175633233e+01,8.966607824026384677e+00,7.824524779092829618e-01
-2.045979531175342458e+01,1.028128868607886481e+01,3.411733569018987389e+00
-2.215831616833240503e+01,8.098241421603441736e+00,5.041801765097595478e-01
-2.207519589061265819e+01,8.379487266023149417e+00,1.041477738217795324e+00
-2.177601729995956958e+01,8.242129168603410605e+00,2.146598584328982540e-01
-2.166916540922700563e+01,8.449604756273835449e+00,5.386732434115257817e-01
-2.111435323884342097e+01,9.000515112072413615e+00,9.966119577041765432e-01
-2.094681256906936540e+01,9.867447203501304998e+00,2.776396054433476479e+00
-2.095006776177729080e+01,1.000833538326574867e+01,3.155278593712916191e+00
-2.119258906372119000e+01,9.928673907239351948e+00,3.382453139731926850e+00
-2.503864608913465872e+01,5.267659200873631598e+00,4.536753187651694219e+00
-2.504746354969875100e+01,5.267816662268730354e+00,4.396769475725869292e+00
-2.526799750687304780e+01,4.931199159977577295e+00,3.914726355456226159e+00
-2.535216942608343516e+01,4.821822081804782556e+00,3.515137620499032778e+00
-2.501233660120467306e+01,5.327621316705316801e+00,4.187748212807076875e+00
-2.514113664139135551e+01,5.130253328064537044e+00,4.033066027940773957e+00
-2.499270527429897726e+01,6.239019366342288819e+00,6.927157964967561199e+00
-2.497514209009168695e+01,5.972228750006038922e+00,6.221240219930241899e+00
-2.537513140376731258e+01,4.624948131298684650e+00,4.668941927524979718e+00
-2.542089356851069581e+01,4.605145421166044528e+00,4.465397474014128676e+00
-2.540346306414048883e+01,4.692903334396462789e+00,4.342439107239055573e+00
-2.541867622501056445e+01,4.676830464191884751e+00,3.991280665897877444e+00
-2.505588297790469809e+01,5.860905716429066992e+00,6.641651995133091901e+00
-2.506865286913455293e+01,5.748251761837082086e+00,6.544346116365325372e+00
-2.309706286802512665e+01,7.490095000051892882e-01,4.237057647411511141e+00
-2.333479936010472144e+01,1.080260847792486878e+00,4.257288535042891731e+00
-2.343897809734750837e+01,5.559471381172282900e-01,3.680741367203753889e+00
-2.343966504049349453e+01,8.718827486735518661e-01,3.937736416393043282e+00
-2.413733990538700169e+01,3.441458788069129415e+00,6.209291380635970192e+00
-2.412209096564530242e+01,3.569758284218780275e+00,6.482350890002431143e+00
-2.384918120619462201e+01,3.211477654717982411e+00,6.512794170396073667e+00
-2.405682592429834088e+01,3.366170091476846427e+00,6.289219599705023533e+00
-2.517420609470065074e+01,3.781076477916997192e+00,4.313137260741227941e+00
-2.510975186930376424e+01,3.430096079004121279e+00,4.091006175352018381e+00
-2.461633855520338443e+01,4.624774371023351094e+00,6.361088638010485852e+00
-2.440158011667739402e+01,4.409669369203303546e+00,6.791656220108518660e+00
-2.447938588174221763e+01,4.533451211583288121e+00,6.759262454583048196e+00
-2.446380960971888641e+01,4.360770567808655684e+00,6.443549874091553775e+00
-2.523277660435482872e+01,4.151227688248456893e+00,4.561574481214456078e+00
-2.496801405149309971e+01,5.437252748770736943e+00,6.722986618532186931e+00
-2.486013239036187272e+01,5.325359648342248065e+00,6.938417149715823129e+00
-1.603528819977633901e+01,5.737557779604700592e+00,1.211027445955915827e+00
-1.617860653270417259e+01,5.919250571668752237e+00,1.270950339986521183e+00
-1.657119435938659890e+01,6.272348227310590829e+00,1.191067326907600421e+00
-1.685225604185766812e+01,6.581836097604549352e+00,1.239027004752021099e+00
-1.646749702479016264e+01,6.197283596525391403e+00,1.240685934293427550e+00
-1.637429712911434976e+01,6.232261479767986501e+00,1.464564672742293183e+00
-1.665364935615585296e+01,6.791336260533953784e+00,1.928857271326373635e+00
-1.578322044147778946e+01,5.610038377530642606e+00,1.440668630454884802e+00
-1.669435990869907371e+01,6.802020115988789861e+00,1.877334441783697017e+00
-1.760054987146334327e+01,7.451573760797534973e+00,1.495316744027313405e+00
-1.718970380379670360e+01,7.042617479470188790e+00,1.458997928235822972e+00
-1.738152768824956240e+01,7.442922871595972545e+00,1.822679165670555435e+00
-1.771717857373482730e+01,7.687144542486915810e+00,1.709987604835676134e+00
-1.885343494610066273e+01,8.138718728382174916e+00,5.187007017144997789e-01
-1.909463618875506441e+01,9.048270191485563885e+00,2.118268913865109848e+00
-1.989193288713143914e+01,8.885856486285485190e+00,8.929950479282307008e-01
-1.967921065846547179e+01,8.596919285262540456e+00,5.833831154893518445e-01
-1.972999510700082837e+01,9.837734209229360260e+00,3.165868912572129990e+00
-2.030966695752679385e+01,9.173038023219330483e+00,1.264341752812164987e+00
-2.057800446114332260e+01,8.893509064917852314e+00,4.453259178608801605e-01
-2.031582997961116277e+01,8.962148971230641692e+00,6.944416265032247182e-01
-1.991481927794516693e+01,1.059933811481812960e+01,4.708101961960571735e+00
-1.992490613428347146e+01,1.049799587708843340e+01,4.329428909041497242e+00
-1.853475751473519395e+01,1.019939067330330396e+01,5.898278257059603291e+00
-1.883150151166597297e+01,1.033085620431489282e+01,5.966714492261703917e+00
-1.904482116443001871e+01,1.040601895385243658e+01,5.763367986363950202e+00
-1.897410978441406826e+01,1.037015230088152151e+01,5.982491488318284034e+00
-2.381853378055866699e+01,5.837139195775096212e+00,9.817626213570754601e+00
-2.352431295838956871e+01,5.685331448639275642e+00,1.016459828375632846e+01
-2.413016805941762755e+01,5.664525646093938605e+00,9.621151208710788438e+00
-2.379001209427397256e+01,5.495609445011560901e+00,9.947360640751913508e+00
-2.083284441820308430e+01,-8.570923609695818568e-02,7.250521876280819455e+00
-2.107355834297440822e+01,2.020439419072282972e-01,7.235081521272395122e+00
-2.161805944806300772e+01,9.086974070741544729e-01,7.302283898638970427e+00
-2.136019103665008601e+01,3.892750918114959990e-01,6.817568459819665527e+00
-2.099590509932341575e+01,-4.909170126496592568e-02,6.879443323088043627e+00
-2.258017780709616673e+01,2.158370431597917083e+00,7.343696858179168174e+00
-2.229331836158083036e+01,1.807027681038809064e+00,7.400129116582636613e+00
-2.230801623252031618e+01,2.005866003939329012e+00,7.770778464224664006e+00
-2.155591578387167573e+01,2.859567533557338059e+00,1.013112868354361851e+01
-2.237509952262389135e+01,3.040084795966601749e+00,9.409543992420234204e+00
-2.423543926845930940e+01,4.413903994104598993e+00,7.405211960087066281e+00
-2.456288319601380721e+01,4.968692217887728191e+00,7.450458596081418250e+00
-2.346668183620436565e+01,4.622658147420762198e+00,9.430298488713688698e+00
-2.333466711522692805e+01,4.556933970551581226e+00,9.547050907806994502e+00
-2.329006384080443581e+01,4.365698235439976038e+00,9.390334498923479600e+00
-2.312474194159221241e+01,4.602368866452301255e+00,9.857293080993944301e+00
-2.296119920112798951e+01,4.363725792515705137e+00,9.817260323673540512e+00
-2.269632416851179713e+01,4.218341390683095327e+00,9.971350340063427353e+00
-2.310021168653621970e+01,4.035758953641690461e+00,9.265872823932685520e+00
-2.278184612186596070e+01,3.905262566831988913e+00,9.544063929510153699e+00
-2.289771893014444615e+01,3.904250290833501502e+00,9.384706989807579447e+00
-2.393945980525272077e+01,5.256287817093560299e+00,9.450609292524138283e+00
-2.272778489910176347e+01,4.700386742782709071e+00,1.034673747603713423e+01
-2.295101631628836003e+01,5.003507023379027530e+00,1.038742735521639560e+01
-2.329606563521515739e+01,5.032337664194937332e+00,1.007461112799769154e+01
-1.470214358835115398e+01,5.964905114039456002e+00,3.903312089248356376e+00
-1.462428443884710028e+01,5.982952679316812628e+00,4.061998204238803645e+00
-1.428288734441442287e+01,6.292218053912748132e+00,5.127219731235443945e+00
-1.465025147244945636e+01,6.770221338765454178e+00,5.351845708021933490e+00
-1.449827227353407366e+01,6.097591999887822745e+00,4.457129293147678695e+00
-1.537170123835930724e+01,7.386539367663198519e+00,5.259523453386973024e+00
-1.565849318064876528e+01,7.505657143636080164e+00,4.968899380278054778e+00
-1.481515643908739932e+01,6.863591104563728784e+00,5.239566427157182460e+00
-1.582406169955429220e+01,7.447495080875987661e+00,4.544931186278075685e+00
-1.586205535018858548e+01,7.361746824474987072e+00,4.308523593663832862e+00
-1.587691662881669963e+01,7.624739675133730188e+00,4.800930840110686937e+00
-1.542001096615532063e+01,7.109828573375871485e+00,4.639205686118152983e+00
-1.759283344377994496e+01,8.899317292957496406e+00,3.693641045642523046e+00
-1.723310826066490264e+01,9.406130147998389646e+00,6.041390276958597205e+00
-1.774764505349289578e+01,9.688208748865205777e+00,5.845965053729811345e+00
-1.820153417730703538e+01,1.006392701504187492e+01,6.088920255990203145e+00
-1.865075492310019811e+01,1.019467148673531831e+01,5.612793075073754245e+00
-1.903266710452804489e+01,9.987780379025164024e+00,4.445015215419445553e+00
-1.894937684481459783e+01,9.935204724971880452e+00,4.443226638360058267e+00
-1.341314709847844178e+01,7.603250022388854390e+00,1.832142997588470479e+01
-1.348080347107518051e+01,8.282222390732894013e+00,1.798615346470704424e+01
-1.404378064214857780e+01,8.873474750677232237e+00,1.788581338589456848e+01
-1.282041580733393538e+01,8.645705435233473679e+00,1.755576797669652933e+01
-1.411221646572048449e+01,9.151883188534464253e+00,1.778499954733501909e+01
-1.407025296461396202e+01,9.211024144289089222e+00,1.774163595108916525e+01
-1.348442937008839948e+01,9.249898231882381694e+00,1.744720729522187241e+01
-1.457303090036183590e+01,1.042663066576267816e+01,1.316124574699788319e+01
-1.490172006125806270e+01,1.006358496417048798e+01,1.228961195919539406e+01
-1.473768453579389437e+01,1.019147691488829643e+01,1.223766286813178183e+01
-1.841887406580109854e+01,6.841332348460161583e+00,1.579709010066564367e+01
-1.683364981149668083e+01,3.463515595642216560e+00,1.549141895590587836e+01
-1.708575954642653372e+01,3.233961086005430197e+00,1.484774824872677712e+01
-1.629647337703051235e+01,5.317709248058498872e+00,1.747778316540986054e+01
-1.728769733243451512e+01,4.402108875765552654e+00,1.533373705615371740e+01
-1.747491377945208768e+01,4.735322488459786427e+00,1.545698347904591330e+01
-1.774896535777302731e+01,4.861421026435759352e+00,1.527151712674306694e+01
-1.837329525422391185e+01,5.925067004417272187e+00,1.554459017907840668e+01
-1.820805970534632934e+01,5.316830624997633592e+00,1.518114389434451539e+01
-1.796179716614942024e+01,6.057961119888569002e+00,1.612450382962243722e+01
-1.716098122119614544e+01,4.699075505736613145e+00,1.576013260891864753e+01
-1.749006920490647587e+01,4.768267581098745822e+00,1.547272978112327557e+01
-1.760549575808282086e+01,5.399053711290866531e+00,1.593418857338220107e+01
-1.767277923195013045e+01,7.017298167244925722e+00,1.739101924770428198e+01
-1.737558885452447655e+01,6.549935145739413933e+00,1.729290721597740799e+01
-1.740884937299591328e+01,7.602113193023598114e+00,1.805773564751334703e+01
-1.748025607907040424e+01,7.452228142483864559e+00,1.793655351063753756e+01
-1.710207587285573183e+01,6.586957460173382017e+00,1.761418781535750355e+01
-1.648312674893257324e+01,5.379620920190467892e+00,1.724756918599435096e+01
-1.671270253621335300e+01,5.691396181450051550e+00,1.723785885253900574e+01
-1.676641202639787664e+01,5.804722283213335388e+00,1.728250415793231554e+01
-1.847971303287580369e+01,6.700915183146522125e+00,1.586329263174527959e+01
-1.138946426577965454e+01,8.899854685423848721e+00,1.417881670670151451e+01
-1.231528786099763906e+01,7.987781473696175638e+00,1.093100414090619665e+01
